NORM_ASCII
1459 1796
   0.0772880    0.3806330   -0.0060730    0.9787668    0.0709068   -0.1923219
   0.0762070    0.3815320   -0.0095470    0.9163765    0.0397888   -0.3983353
   0.0735910    0.3819160   -0.0130030    0.8692249   -0.0082667   -0.4943478
   0.0721780    0.3822220   -0.0165080    0.8140774    0.0023115   -0.5807518
   0.0704170    0.3834980   -0.0193040    0.6180969   -0.3860810   -0.6847611
   0.0699860    0.3861200   -0.0209180    0.6506552   -0.2766325   -0.7071932
   0.0679010    0.3872120   -0.0235730    0.7290854   -0.1720925   -0.6624339
   0.0654510    0.3878920   -0.0263670    0.6759135   -0.0859000   -0.7319577
   0.0626340    0.3890120   -0.0286100    0.7667561   -0.1612452   -0.6213574
   0.0624530    0.3907990   -0.0306160    0.7697769   -0.1044647   -0.6297068
   0.0596290    0.3927890   -0.0325850    0.6140459    0.1117940   -0.7813128
   0.0569220    0.3950540   -0.0343480    0.5920364    0.1527745   -0.7912982
   0.0543770    0.3979080   -0.0355670    0.5430042    0.1788315   -0.8204668
   0.0520630    0.4012380   -0.0362800    0.5492931    0.2227593   -0.8053915
   0.0501190    0.4049010   -0.0365660    0.5429336    0.2197667   -0.8105095
   0.0487040    0.4088230   -0.0366440    0.6738720    0.1919490   -0.7134788
   0.0478420    0.4129430   -0.0367290    0.8124347    0.1990725   -0.5480146
   0.0470350    0.4170830   -0.0370310    0.9128257    0.1947595   -0.3589123
   0.0464060    0.4212170   -0.0374590    0.9887147    0.0477813   -0.1419869
   0.0465240    0.4254290   -0.0376950    0.9921194   -0.0886041   -0.0885909
   0.0470240    0.4296490   -0.0378580    0.9763400   -0.1522517   -0.1535569
   0.0476730    0.4338110   -0.0380660    0.9385590   -0.2055889   -0.2772007
   0.0485860    0.4379000   -0.0383390    0.8680673   -0.2299068   -0.4400024
   0.0784320    0.3771010   -0.0033250    0.9839486    0.1039355   -0.1450605
   0.0772730    0.3776060   -0.0071540    0.9613429    0.0515143   -0.2704925
   0.0759070    0.3782520   -0.0108170    0.8855964    0.0600275   -0.4605601
   0.0731420    0.3788280   -0.0145170    0.8724852    0.0912950   -0.4800362
   0.0718280    0.3810400   -0.0183030    0.7011296    0.4219229   -0.5748029
   0.0689860    0.3819410   -0.0188040    0.5953651    0.2403761   -0.7666549
   0.0675310    0.3829610   -0.0205560    0.8186151   -0.0388206   -0.5730291
   0.0666030    0.3845440   -0.0244380    0.7965795   -0.1568981   -0.5838186
   0.0641810    0.3851420   -0.0272190    0.7075999   -0.0378404   -0.7055994
   0.0617440    0.3872970   -0.0297340    0.6243365   -0.1435313   -0.7678559
   0.0587190    0.3892520   -0.0317700    0.5834319   -0.2899979   -0.7586228
   0.0580880    0.3910730   -0.0338970    0.5629943   -0.1613276   -0.8105621
   0.0553020    0.3936670   -0.0358190    0.4320240   -0.0459100   -0.9006928
   0.0523370    0.3966860   -0.0367900    0.3317895    0.0102486   -0.9432978
   0.0487860    0.3988110   -0.0376480    0.3172751    0.0528833   -0.9468579
   0.0450580    0.4005190   -0.0388810    0.3443831    0.0459640   -0.9377034
   0.0424540    0.4037200   -0.0400340    0.3507294    0.0291205   -0.9360240
   0.0387370    0.4075490   -0.0411070    0.4115187    0.0086393   -0.9113604
   0.0378450    0.4119350   -0.0419580    0.5030566   -0.0680095   -0.8615734
   0.0406660    0.4162590   -0.0415440    0.5519942   -0.0924621   -0.8287057
   0.0420520    0.4205470   -0.0411710    0.5712534   -0.0663203   -0.8180900
   0.0433760    0.4248620   -0.0405720    0.5706973   -0.0970426   -0.8154063
   0.0439400    0.4291490   -0.0408670    0.5592690   -0.1633220   -0.8127386
   0.0437990    0.4336170   -0.0418220    0.5005111   -0.1514583   -0.8523785
   0.0786780    0.3748140   -0.0033100    0.9774140    0.0518084   -0.2048848
   0.0775350    0.3750490   -0.0070950    0.9448040    0.0715545   -0.3197269
   0.0760470    0.3754520   -0.0107120    0.8777636    0.0848135   -0.4715271
   0.0735510    0.3763320   -0.0139990    0.8666936    0.0232707   -0.4982977
   0.0719560    0.3777450   -0.0173330    0.7891714    0.0915579   -0.6073102
   0.0699710    0.3798080   -0.0199570    0.7054351    0.3070668   -0.6388046
   0.0679270    0.3819860   -0.0223350    0.8628389    0.0678951   -0.5008986
   0.0655760    0.3811380   -0.0250170    0.7952387   -0.1743277   -0.5806937
   0.0632750    0.3823240   -0.0277530    0.6848977   -0.1656301   -0.7095645
   0.0609910    0.3840360   -0.0301860    0.6006147   -0.1047392   -0.7926485
   0.0576680    0.3862920   -0.0325250    0.5417780   -0.2147202   -0.8126326
   0.0544700    0.3878730   -0.0345380    0.4208216   -0.3489990   -0.8373224
   0.0512900    0.3898150   -0.0362530    0.2965281   -0.2032489   -0.9331457
   0.0499940    0.3920440   -0.0369420    0.2758738   -0.0657736   -0.9589408
   0.0466140    0.3942720   -0.0382790    0.2958032   -0.0510245   -0.9538852
   0.0432330    0.3963990   -0.0397010    0.2952376   -0.0558979   -0.9537873
   0.0384430    0.3991400   -0.0409320    0.2780589   -0.0480615   -0.9593609
   0.0359670    0.4025020   -0.0420270    0.3379676   -0.0907859   -0.9367688
   0.0348210    0.4066820   -0.0432170    0.3867545   -0.1506885   -0.9097878
   0.0334890    0.4108570   -0.0441030    0.3832094   -0.1612019   -0.9094859
   0.0348970    0.4154050   -0.0446880    0.3791220   -0.0800600   -0.9218768
   0.0347540    0.4199230   -0.0447900    0.3614034   -0.0233173   -0.9321180
   0.0347110    0.4244100   -0.0445700    0.3550392   -0.0740786   -0.9319118
   0.0348490    0.4289670   -0.0447470    0.2991611   -0.0332510   -0.9536231
   0.0782820    0.3714830   -0.0039310    0.9806256   -0.1397708   -0.1372499
   0.0775600    0.3716530   -0.0082110    0.9469657   -0.0989208   -0.3057296
   0.0758730    0.3711820   -0.0118340    0.8631088   -0.0507913   -0.5024573
   0.0738010    0.3734690   -0.0148520    0.8033179   -0.0573028   -0.5927873
   0.0714840    0.3748570   -0.0177570    0.7727889   -0.1479414   -0.6171796
   0.0690740    0.3760020   -0.0205870    0.7155183   -0.1628782   -0.6793410
   0.0666390    0.3772830   -0.0233770    0.6968022   -0.2264323   -0.6805844
   0.0641740    0.3781300   -0.0260410    0.6326313   -0.3297884   -0.7007262
   0.0617480    0.3799280   -0.0286050    0.5123997   -0.3945378   -0.7627492
   0.0586360    0.3823650   -0.0314100    0.4247382   -0.3697488   -0.8263676
   0.0555660    0.3845600   -0.0336880    0.3402800   -0.4184377   -0.8420923
   0.0517090    0.3854870   -0.0352680    0.2426751   -0.4139596   -0.8773518
   0.0485240    0.3882060   -0.0365230    0.2271842   -0.2894275   -0.9298489
   0.0467660    0.3900590   -0.0377430    0.2675240   -0.2258224   -0.9367151
   0.0429840    0.3918260   -0.0393020    0.2998180   -0.1038014   -0.9483325
   0.0376970    0.3939240   -0.0408820    0.3057510    0.0009537   -0.9521110
   0.0343090    0.3965240   -0.0420200    0.2787405   -0.0287242   -0.9599368
   0.0317450    0.4000940   -0.0428410    0.2123417   -0.1535808   -0.9650513
   0.0309110    0.4047100   -0.0441350    0.1463951   -0.1835696   -0.9720446
   0.0300400    0.4093510   -0.0448710    0.1377094   -0.1684448   -0.9760443
   0.0306530    0.4140100   -0.0457130    0.1566179   -0.1269046   -0.9794723
   0.0297360    0.4187040   -0.0462290    0.1992072   -0.0155710   -0.9798337
   0.0291780    0.4234890   -0.0463200    0.2410930   -0.0073768   -0.9704740
   0.0297020    0.4283620   -0.0463890    0.3033912    0.0547414   -0.9512924
   0.0775620    0.3691840   -0.0041060    0.8132503   -0.5818120   -0.0108933
   0.0766380    0.3685540   -0.0087350    0.7647256   -0.6032116   -0.2265625
   0.0747420    0.3689150   -0.0127220    0.7299795   -0.4286704   -0.5323266
   0.0719730    0.3698620   -0.0158160    0.6722021   -0.3091045   -0.6727546
   0.0694310    0.3712570   -0.0190010    0.6308066   -0.3294115   -0.7025462
   0.0669090    0.3735100   -0.0218420    0.5863064   -0.3631228   -0.7241455
   0.0642890    0.3752510   -0.0248030    0.4974097   -0.4984548   -0.7100186
   0.0615500    0.3769710   -0.0275870    0.3366320   -0.6203232   -0.7084335
   0.0576510    0.3787190   -0.0300400    0.1953193   -0.6451053   -0.7387080
   0.0538640    0.3807310   -0.0320470    0.1282312   -0.6398102   -0.7577596
   0.0499470    0.3824830   -0.0339240    0.1316996   -0.5873100   -0.7985751
   0.0461150    0.3849080   -0.0354150    0.1980745   -0.3706092   -0.9074223
   0.0424320    0.3874520   -0.0371140    0.2483204   -0.2890487   -0.9245474
   0.0388600    0.3897910   -0.0392680    0.2462873   -0.3772638   -0.8927567
   0.0351610    0.3918200   -0.0413900    0.2074655   -0.4081783   -0.8890155
   0.0310730    0.3932630   -0.0433540    0.0691330   -0.4713734   -0.8792200
   0.0274400    0.3956740   -0.0445930    0.0063709   -0.2693963   -0.9630083
   0.0250460    0.4003300   -0.0446450    0.0085667   -0.1010226   -0.9948473
   0.0234240    0.4055720   -0.0445000   -0.0521740   -0.1269386   -0.9905375
   0.0238220    0.4105490   -0.0449830   -0.0665422   -0.1394127   -0.9879961
   0.0266070    0.4154430   -0.0459640   -0.0405921   -0.1319138   -0.9904297
   0.0266970    0.4206740   -0.0465730    0.0470821   -0.0679153   -0.9965795
   0.0255760    0.4257690   -0.0469450    0.1822348   -0.0266024   -0.9828951
   0.0236710    0.4306090   -0.0476210    0.4408766    0.0436492   -0.8965057
   0.0754990    0.3672180   -0.0049580    0.4461899   -0.8949340   -0.0027725
   0.0741560    0.3672350   -0.0097650    0.3596029   -0.9226701   -0.1391608
   0.0720610    0.3676680   -0.0140550    0.4095712   -0.7999073   -0.4386340
   0.0694850    0.3689850   -0.0176980    0.4172507   -0.6654192   -0.6189662
   0.0665660    0.3704650   -0.0208500    0.3362130   -0.6652760   -0.6666098
   0.0634920    0.3721750   -0.0235100    0.2194616   -0.7089583   -0.6702349
   0.0605930    0.3742320   -0.0263810    0.0943284   -0.7806936   -0.6177538
   0.0563960    0.3765480   -0.0289420   -0.0172326   -0.7923099   -0.6098755
   0.0524490    0.3790360   -0.0309490   -0.0956319   -0.7735001   -0.6265398
   0.0483660    0.3814620   -0.0327330   -0.1107399   -0.7936152   -0.5982572
   0.0442660    0.3833760   -0.0348400   -0.0509151   -0.7099923   -0.7023665
   0.0403490    0.3858960   -0.0368920    0.0388795   -0.5819785   -0.8122743
   0.0364810    0.3879630   -0.0393830    0.1032039   -0.6013484   -0.7922935
   0.0326430    0.3900390   -0.0416320    0.0792803   -0.6282049   -0.7739982
   0.0285290    0.3922430   -0.0433680   -0.1200252   -0.8325748   -0.5407523
   0.0241570    0.3943800   -0.0445120   -0.4554723   -0.8366793   -0.3041591
   0.0210750    0.3987470   -0.0443690   -0.5257060   -0.4474466   -0.7234810
   0.0195440    0.4040390   -0.0440540   -0.2764814   -0.0480705   -0.9598163
   0.0195950    0.4096560   -0.0442100   -0.2392931   -0.0243466   -0.9706421
   0.0222670    0.4147980   -0.0451230   -0.2487853   -0.0907168   -0.9643010
   0.0227360    0.4202430   -0.0461950   -0.2618135   -0.1484746   -0.9536294
   0.0210810    0.4255300   -0.0465690   -0.1734343   -0.1518700   -0.9730653
   0.0200150    0.4308880   -0.0476150   -0.0791066   -0.1610862   -0.9837649
   0.0191580    0.4362410   -0.0491300    0.1087596   -0.2125696   -0.9710744
   0.0740780    0.3666830   -0.0047340    0.4411460   -0.8944031   -0.0737103
   0.0728640    0.3668650   -0.0095690    0.3395708   -0.9248900   -0.1710851
   0.0705600    0.3673660   -0.0137240    0.0946493   -0.9647688   -0.2454846
   0.0676060    0.3682190   -0.0170770    0.0001516   -0.9423275   -0.3346923
   0.0645050    0.3694890   -0.0200630   -0.1437832   -0.9226196   -0.3579099
   0.0613660    0.3715170   -0.0225530   -0.2133470   -0.8760374   -0.4324829
   0.0570810    0.3741870   -0.0249570   -0.2704721   -0.8962313   -0.3515883
   0.0531200    0.3760320   -0.0270900   -0.3985408   -0.8951847   -0.1995232
   0.0491670    0.3786000   -0.0291100   -0.4211910   -0.8638514   -0.2763312
   0.0452620    0.3812370   -0.0311750   -0.3602197   -0.8814115   -0.3055416
   0.0414900    0.3834950   -0.0337950   -0.3320149   -0.8751670   -0.3519216
   0.0378700    0.3861540   -0.0364750   -0.3292164   -0.8790259   -0.3448623
   0.0338220    0.3882830   -0.0386360   -0.2915323   -0.9196306   -0.2632270
   0.0296910    0.3898020   -0.0408970   -0.3278938   -0.9177936   -0.2239211
   0.0254150    0.3920950   -0.0423390   -0.5038599   -0.8637852   -0.0005539
   0.0217320    0.3956030   -0.0433310   -0.7512392   -0.6576006    0.0565782
   0.0195050    0.4006110   -0.0434570   -0.8643686   -0.3480567   -0.3629372
   0.0183130    0.4060920   -0.0436170   -0.7679003   -0.1026420   -0.6322925
   0.0179390    0.4117420   -0.0435210   -0.7604628    0.0039889   -0.6493692
   0.0185560    0.4173750   -0.0438200   -0.6883126   -0.0373584   -0.7244516
   0.0185970    0.4229530   -0.0447670   -0.6021118   -0.1638301   -0.7814225
   0.0178250    0.4284750   -0.0456710   -0.5504858   -0.2339560   -0.8013925
   0.0175340    0.4336470   -0.0476880   -0.5811717   -0.2609615   -0.7708038
   0.0173560    0.4390480   -0.0492200   -0.6187968   -0.3082857   -0.7225306
   0.0729770    0.3662690   -0.0046570   -0.0542549   -0.9985200    0.0037653
   0.0722390    0.3661340   -0.0095710   -0.1580032   -0.9868910    0.0328804
   0.0693430    0.3670230   -0.0128510   -0.3740507   -0.9170530    0.1382021
   0.0664020    0.3682000   -0.0158960   -0.4958180   -0.8488252    0.1834675
   0.0633580    0.3696040   -0.0187540   -0.6151964   -0.7700474    0.1689981
   0.0607190    0.3717710   -0.0217890   -0.6027460   -0.7967721    0.0430294
   0.0566310    0.3739400   -0.0244480   -0.5456291   -0.8282584    0.1275806
   0.0527980    0.3763250   -0.0266610   -0.5974463   -0.7526827    0.2766344
   0.0489740    0.3788120   -0.0287440   -0.6148988   -0.7525330    0.2357830
   0.0450790    0.3813260   -0.0306490   -0.5817367   -0.7893114    0.1963922
   0.0411500    0.3834790   -0.0327250   -0.5848186   -0.7850585    0.2041330
   0.0372680    0.3860680   -0.0345930   -0.6069433   -0.7551026    0.2478709
   0.0334850    0.3881710   -0.0370360   -0.5731352   -0.7403355    0.3513110
   0.0295620    0.3900890   -0.0394170   -0.5464112   -0.7038877    0.4538468
   0.0254430    0.3925640   -0.0407920   -0.5990765   -0.6048437    0.5246633
   0.0219730    0.3962630   -0.0415340   -0.7381919   -0.4395549    0.5117267
   0.0194850    0.4010350   -0.0420250   -0.8699171   -0.3034743    0.3887770
   0.0178040    0.4062010   -0.0419340   -0.9246284   -0.1631975    0.3441351
   0.0175620    0.4117270   -0.0416740   -0.9335032    0.0057244    0.3585234
   0.0180290    0.4172680   -0.0416730   -0.9717794    0.0430623    0.2319278
   0.0173400    0.4225660   -0.0429070   -0.9974912   -0.0571555    0.0417674
   0.0165850    0.4278500   -0.0442010   -0.9775166   -0.1885781   -0.0943378
   0.0153960    0.4332200   -0.0446220   -0.9686708   -0.2444668   -0.0437372
   0.0137810    0.4383990   -0.0442170   -0.9463061   -0.3102178    0.0909377
   0.0703550    0.3690450   -0.0046680   -0.7937658   -0.5986779    0.1073343
   0.0692750    0.3692740   -0.0088950   -0.7995034   -0.5118806    0.3142810
   0.0670460    0.3703940   -0.0120420   -0.7476824   -0.4194640    0.5148019
   0.0644750    0.3721170   -0.0145530   -0.7267494   -0.3337874    0.6003510
   0.0618420    0.3737870   -0.0168900   -0.7269024   -0.3107465    0.6124129
   0.0583150    0.3759300   -0.0192530   -0.6977761   -0.3840979    0.6046299
   0.0550870    0.3768180   -0.0218050   -0.6631260   -0.4744716    0.5789133
   0.0518620    0.3786740   -0.0241130   -0.6657536   -0.4979246    0.5557367
   0.0486150    0.3810000   -0.0260720   -0.6557120   -0.4961014    0.5691443
   0.0453650    0.3830870   -0.0281200   -0.6320460   -0.4589200    0.6244280
   0.0421220    0.3856070   -0.0298580   -0.6114187   -0.3907446    0.6881031
   0.0388720    0.3880980   -0.0315960   -0.6236066   -0.3560487    0.6959483
   0.0355920    0.3905070   -0.0333980   -0.6223815   -0.3489731    0.7006134
   0.0322930    0.3928900   -0.0352190   -0.5658065   -0.3456071    0.7486112
   0.0291840    0.3959010   -0.0364070   -0.4772831   -0.2998647    0.8260037
   0.0263290    0.3995640   -0.0367870   -0.4713641   -0.1944505    0.8602354
   0.0247540    0.4039660   -0.0373530   -0.4868444   -0.1230366    0.8647800
   0.0239150    0.4087810   -0.0375660   -0.3562234   -0.0844455    0.9305771
   0.0235170    0.4133260   -0.0373400   -0.2739871    0.0555769    0.9601262
   0.0215730    0.4174940   -0.0384240   -0.3741674    0.1948408    0.9066619
   0.0195020    0.4214790   -0.0402580   -0.4903450    0.2064791    0.8467161
   0.0177180    0.4255240   -0.0421410   -0.6139668    0.0777495    0.7854933
   0.0171490    0.4302340   -0.0428000   -0.5484557   -0.1066198    0.8293543
   0.0167270    0.4350490   -0.0421330   -0.3986568   -0.2964904    0.8678515
   0.0670300    0.3760930   -0.0036380   -0.9763099   -0.1789106    0.1216965
   0.0662550    0.3774340   -0.0073460   -0.9381200   -0.1109831    0.3280450
   0.0653690    0.3793370   -0.0104700   -0.8590125   -0.0427998    0.5101624
   0.0643670    0.3824230   -0.0127910   -0.7230004    0.0427940    0.6895210
   0.0625260    0.3851700   -0.0149560   -0.5831048    0.0761449    0.8088206
   0.0590940    0.3855510   -0.0168310   -0.5446622   -0.0901383    0.8337975
   0.0557190    0.3846620   -0.0186900   -0.5698339   -0.3000469    0.7650236
   0.0525630    0.3845350   -0.0210610   -0.6135472   -0.4056103    0.6775250
   0.0494770    0.3855110   -0.0233920   -0.6290305   -0.3880552    0.6735976
   0.0463920    0.3874390   -0.0250970   -0.7094352   -0.2740492    0.6493063
   0.0453630    0.3899930   -0.0264360   -0.7238593   -0.2674992    0.6359811
   0.0426070    0.3929480   -0.0276880   -0.6079612   -0.3241710    0.7247733
   0.0385280    0.3963600   -0.0286910   -0.6198342   -0.2845668    0.7313189
   0.0363170    0.3998500   -0.0300140   -0.6563832   -0.2212973    0.7212410
   0.0337200    0.4010630   -0.0327440   -0.5734850   -0.1728982    0.8007628
   0.0311890    0.4033290   -0.0347700   -0.4759166   -0.0955193    0.8742879
   0.0296640    0.4073800   -0.0352860   -0.4216854   -0.0259378    0.9063711
   0.0286570    0.4116610   -0.0358630   -0.5051349    0.0690848    0.8602709
   0.0297480    0.4153790   -0.0380000   -0.4812482    0.1434333    0.8647699
   0.0283790    0.4191180   -0.0389910   -0.2680825    0.1574002    0.9504509
   0.0262450    0.4228610   -0.0396140   -0.1879393    0.2275727    0.9554525
   0.0240650    0.4264520   -0.0406310   -0.1176588    0.2232327    0.9676381
   0.0224930    0.4304680   -0.0414410    0.0492832    0.1351566    0.9895978
   0.0204410    0.4342970   -0.0418860    0.3243582   -0.0513352    0.9445403
   0.0670730    0.3794960   -0.0045440   -0.9162509    0.3316272    0.2247390
   0.0666260    0.3819420   -0.0074750   -0.8238417    0.3095439    0.4748342
   0.0661630    0.3851980   -0.0099980   -0.7201857    0.2892771    0.6305960
   0.0654820    0.3888310   -0.0121200   -0.6527069    0.3697727    0.6612426
   0.0656560    0.3905720   -0.0147030   -0.5623476    0.3845137    0.7320617
   0.0623200    0.3900950   -0.0165060   -0.4013348    0.1510504    0.9033904
   0.0563080    0.3885040   -0.0174460   -0.4210784   -0.0374400    0.9062512
   0.0528180    0.3877180   -0.0189100   -0.5101713   -0.1426247    0.8481647
   0.0495110    0.3886360   -0.0201010   -0.5104092   -0.1474258    0.8472001
   0.0488950    0.3916850   -0.0209930   -0.6084232   -0.0752629    0.7900359
   0.0458940    0.3941600   -0.0221830   -0.6423408   -0.1304647    0.7552333
   0.0433230    0.3970320   -0.0235070   -0.5502927   -0.1528475    0.8208627
   0.0412430    0.4001800   -0.0251970   -0.5877701   -0.1150467    0.8008062
   0.0373680    0.4023740   -0.0276890   -0.7075049   -0.1416616    0.6923647
   0.0348330    0.4041000   -0.0302940   -0.7295337   -0.1116302    0.6747735
   0.0328020    0.4066350   -0.0324690   -0.6344002   -0.0208005    0.7727249
   0.0315870    0.4104050   -0.0338800   -0.5065389    0.0345194    0.8615258
   0.0311610    0.4141640   -0.0345550   -0.6133486    0.1454833    0.7762977
   0.0305270    0.4183480   -0.0352540   -0.6037790    0.2174364    0.7669239
   0.0304600    0.4222140   -0.0369320   -0.2951637    0.2208094    0.9295814
   0.0301440    0.4260410   -0.0389040   -0.1319402    0.2896661    0.9479902
   0.0288150    0.4294890   -0.0407330    0.0068007    0.3832605    0.9236153
   0.0262840    0.4321560   -0.0425360    0.1671034    0.4013688    0.9005440
   0.0244230    0.4355910   -0.0440100    0.3679873    0.2779300    0.8873220
   0.0768800    0.3919950   -0.0032500   -0.7568529    0.6098552    0.2350537
   0.0760870    0.3930900   -0.0064160   -0.6026783    0.5946371    0.5321519
   0.0746940    0.3941910   -0.0094180   -0.5063630    0.5599553    0.6557793
   0.0727660    0.3951370   -0.0121490   -0.4586944    0.5934750    0.6613524
   0.0703110    0.3958710   -0.0144690   -0.4319155    0.4732690    0.7677665
   0.0674520    0.3965620   -0.0162490   -0.3922863    0.2154556    0.8942541
   0.0643360    0.3972430   -0.0175690   -0.2919383    0.2031826    0.9346063
   0.0611130    0.3978580   -0.0186230   -0.2926543    0.2670365    0.9181748
   0.0578370    0.3984600   -0.0194690   -0.1797555    0.2588529    0.9490433
   0.0545320    0.3991150   -0.0201520   -0.2547447    0.1877560    0.9486057
   0.0512420    0.3998480   -0.0209180   -0.2961785    0.0964622    0.9502491
   0.0480670    0.4007840   -0.0219330   -0.3901874    0.0770719    0.9175041
   0.0451780    0.4021900   -0.0232220   -0.4255592   -0.0482533    0.9036432
   0.0423850    0.4037730   -0.0246350   -0.5878799   -0.1457487    0.7957101
   0.0380290    0.4050980   -0.0264090   -0.6240149    0.0084247    0.7813671
   0.0363860    0.4067830   -0.0289610   -0.6091319    0.1963039    0.7683899
   0.0355080    0.4098480   -0.0307470   -0.5640211    0.2236300    0.7949024
   0.0362860    0.4132710   -0.0320010   -0.4699875    0.2264216    0.8531383
   0.0356080    0.4165410   -0.0335220   -0.3720834    0.2862949    0.8829435
   0.0351690    0.4197890   -0.0352410   -0.3545357    0.3873951    0.8510167
   0.0348350    0.4231280   -0.0368300   -0.2811835    0.4128514    0.8663080
   0.0343000    0.4262520   -0.0386310   -0.2324507    0.5192276    0.8224168
   0.0336710    0.4291030   -0.0407970   -0.1598598    0.5154797    0.8418584
   0.0333990    0.4320220   -0.0429910   -0.0899262    0.4074518    0.9087884
   0.0831050    0.3933020    0.0011230    0.9657550   -0.2093221   -0.1533022
   0.0829570    0.3947140    0.0010490    0.8804521   -0.2617736   -0.3953210
   0.0834580    0.3925900    0.0018650    0.8917656   -0.3631885   -0.2699039
   0.0838460    0.3937380    0.0025260    0.7801566   -0.5096311    0.3628110
   0.0858170    0.3972580    0.0014700    0.8573513   -0.4680016   -0.2142972
   0.0870680    0.4037640    0.0010720    0.7036183    0.7101295   -0.0252466
   0.0857880    0.4038490    0.0018370   -0.6872946    0.7007903   -0.1910999
   0.0837580    0.3932430    0.0036550    0.9814778   -0.0279560    0.1895252
   0.0834040    0.3947580    0.0035570    0.8293241   -0.1890367    0.5258199
   0.0859110    0.3979450    0.0032350    0.6863231   -0.3840996    0.6175987
   0.0870670    0.4032750    0.0033300    0.6662351    0.4159867    0.6189393
   0.0857270    0.4036370    0.0036270   -0.2956887    0.9269116    0.2310909
   0.0829050    0.3939280    0.0048790    0.9914849   -0.0885928    0.0954407
   0.0829690    0.3963120    0.0043380    0.9881726   -0.1532231   -0.0061261
   0.0850770    0.4007550    0.0043620    0.8858663   -0.1804026    0.4274292
   0.0852930    0.4033430    0.0040460    0.1953091    0.7736083    0.6028138
   0.0834460    0.3931340    0.0058640    0.9757532   -0.2003108   -0.0882119
   0.0833870    0.3953040    0.0055400    0.9086882   -0.2326881   -0.3466152
   0.0849510    0.3981370    0.0058140    0.9601538   -0.2064370   -0.1883835
   0.0849190    0.4044800    0.0052940    0.9194105    0.3386010   -0.2000844
   0.0835560    0.3933440    0.0076530    0.9631341   -0.2051134    0.1740727
   0.0835380    0.3944280    0.0073870    0.9791836   -0.1794024    0.0949436
   0.0849040    0.3979180    0.0073860    0.9647574   -0.2216633    0.1418044
   0.0853950    0.4015910    0.0068200    0.9692037    0.0480009    0.2415369
   0.0849450    0.4049570    0.0068420    0.1626756    0.9864479    0.0213826
   0.0829970    0.3930820    0.0093940    0.8812073   -0.1501191    0.4482610
   0.0829590    0.3952420    0.0088520    0.8307300   -0.0888113    0.5495454
   0.0841690    0.3977590    0.0088770    0.7514050   -0.1684471    0.6379781
   0.0847040    0.4021410    0.0085120    0.7776651    0.0489941    0.6267668
   0.0842470    0.4047820    0.0078970    0.5283488    0.8456793    0.0753266
   0.0826850    0.3937740    0.0102320    0.8846611   -0.1126377    0.4524241
   0.0820970    0.3970070    0.0098100    0.8700167   -0.0441857    0.4910382
   0.0833560    0.4010490    0.0095430    0.9850511   -0.1324481    0.1101449
   0.0836630    0.4033470    0.0094700    0.8649372    0.4579960   -0.2052395
   0.0822160    0.3934680    0.0110860    0.9005568   -0.1510469    0.4076546
   0.0820440    0.3954300    0.0109880    0.9912630   -0.1212401   -0.0519468
   0.0841560    0.3994720    0.0112620    0.9623751   -0.2029845   -0.1806417
   0.0841990    0.4033460    0.0110910    0.9830686    0.1096792   -0.1467878
   0.0831330    0.4057710    0.0106440    0.1873889    0.6787968   -0.7100143
   0.0821680    0.3932280    0.0126580    0.7800516   -0.4445430    0.4403419
   0.0820870    0.3948710    0.0128110    0.9336454   -0.1959304    0.2998624
   0.0836070    0.3975230    0.0126330    0.9020219   -0.2925695    0.3174264
   0.0842010    0.4004210    0.0123420    0.9488322    0.0288494    0.3144601
   0.0835350    0.4048620    0.0120730    0.8636566    0.4595453    0.2071602
   0.0826010    0.4064990    0.0116750    0.5220970    0.8526394   -0.0205123
   0.0806730    0.3939670    0.0153810    0.7552116   -0.3434968    0.5582699
   0.0806740    0.3950310    0.0148970    0.6515556    0.1190513    0.7492009
   0.0817430    0.3983600    0.0148720    0.3812246   -0.1033192    0.9186909
   0.0830440    0.4016690    0.0144040    0.5943938    0.0812727    0.8000568
   0.0826380    0.4055050    0.0137400    0.5882523    0.3775996    0.7151068
   0.0818800    0.4063340    0.0129570    0.0139008    0.9459641    0.3239732
   0.0787070    0.3954760    0.0164670    0.6965305    0.0888902    0.7119999
   0.0779780    0.4019970    0.0149950    0.2206441    0.9343586   -0.2798037
   0.0781330    0.3984380    0.0149400    0.5836065    0.0274558    0.8115723
   0.0794750    0.4015740    0.0151660    0.7849501   -0.0246538    0.6190682
   0.0795060    0.4032570    0.0150920    0.0414190    0.7871544    0.6153637
   0.0775660    0.3960390    0.0176660    0.8722261   -0.2306115    0.4313235
   0.0777730    0.3975400    0.0169560    0.9476939   -0.0273346    0.3180081
   0.0793140    0.4006690    0.0171970    0.9543774   -0.2915683    0.0644338
   0.0797110    0.4031660    0.0171240    0.9976756    0.0425089    0.0532571
   0.0793560    0.4045430    0.0170260    0.7362700    0.6179786   -0.2756972
   0.0772490    0.3956580    0.0189970    0.7168661   -0.2348903    0.6564522
   0.0772990    0.3969730    0.0189470    0.7183836   -0.1823446    0.6713236
   0.0788250    0.4006490    0.0191640    0.7462194   -0.2076140    0.6324975
   0.0795740    0.4027480    0.0186960    0.7600497    0.1551822    0.6310649
   0.0786190    0.4048740    0.0182830    0.5470134    0.7226175    0.4226112
   0.0770980    0.4053170    0.0163220    0.0486870    0.7937554   -0.6062853
   0.0752060    0.3963930    0.0200980    0.3784738    0.0716404    0.9228354
   0.0753940    0.3979130    0.0196050    0.1279953    0.1073427    0.9859487
   0.0772150    0.4016110    0.0198560    0.0133907    0.0413179    0.9990563
   0.0771400    0.4040800    0.0195070    0.0353532    0.3775669    0.9253072
   0.0763840    0.4058770    0.0182320   -0.2555916    0.9595787    0.1178203
   0.0741320    0.3969230    0.0206370    0.6743928    0.1267612    0.7274104
   0.0737180    0.3995430    0.0187000    0.5563443    0.1819458    0.8107877
   0.0747240    0.4029690    0.0190940    0.4760725    0.4466838    0.7575147
   0.0740620    0.4044840    0.0180610    0.0329317    0.9210731    0.3879946
   0.0729160    0.3967220    0.0218690    0.5907917   -0.1078484    0.7995836
   0.0726860    0.3984500    0.0215450    0.7256971    0.0388566    0.6869162
   0.0741010    0.4027690    0.0214960    0.9081842   -0.0375838    0.4168799
   0.0738880    0.4048120    0.0207130    0.8260780    0.2802825    0.4889140
   0.0731820    0.4063460    0.0201230    0.4205409    0.9042650    0.0738260
   0.0718300    0.4064640    0.0195320    0.4633038    0.8042415   -0.3722166
   0.0717370    0.4052880    0.0180180    0.3290315    0.8997577   -0.2866607
   0.0713340    0.3972400    0.0225770    0.3944727    0.0411738    0.9179848
   0.0714960    0.3987630    0.0223100    0.3350211    0.0168690    0.9420596
   0.0725790    0.4029640    0.0226800    0.4556467    0.0292029    0.8896816
   0.0725470    0.4059030    0.0216460    0.2520676    0.5348018    0.8065041
   0.0712050    0.4067450    0.0196850   -0.0585817    0.9972453   -0.0454980
   0.0707300    0.4059800    0.0187740    0.0114505    0.9776309   -0.2100158
   0.0697640    0.3985530    0.0237110    0.3343919    0.1424872    0.9316005
   0.0695520    0.3999970    0.0222830   -0.0058825    0.1919374    0.9813895
   0.0710300    0.4034100    0.0229440    0.0181178    0.1231854    0.9922183
   0.0703960    0.4061300    0.0220870    0.0080241    0.6575333    0.7533827
   0.0695000    0.4065320    0.0208610   -0.3324283    0.9415167   -0.0551158
   0.0691340    0.4054790    0.0199830   -0.1594225    0.9768973   -0.1423243
   0.0687810    0.3987640    0.0244920    0.4850297    0.2844573    0.8269403
   0.0675530    0.4004460    0.0220630    0.6770402    0.3327647    0.6564177
   0.0689690    0.4040950    0.0222640    0.2431294   -0.0368422    0.9692939
   0.0688870    0.4060790    0.0221660   -0.0156913    0.8688486    0.4948292
   0.0679250    0.4057820    0.0209650    0.0267705    0.9865874    0.1610236
   0.0681270    0.3985490    0.0251040    0.7070417    0.2860341    0.6467430
   0.0675290    0.3999200    0.0245470    0.9170044    0.1003331    0.3860520
   0.0687880    0.4039370    0.0251580    0.8807805   -0.1600448    0.4456583
   0.0685990    0.4054800    0.0244000    0.6396749    0.4964364    0.5868279
   0.0679240    0.4060220    0.0238580    0.1568778    0.9874717    0.0169970
   0.0657640    0.4057740    0.0225340    0.1489223    0.9717912    0.1828772
   0.0663320    0.3986340    0.0260370    0.4637973    0.1083493    0.8792909
   0.0664040    0.3999380    0.0257700    0.4498416    0.0600386    0.8910881
   0.0674210    0.4033330    0.0261650    0.4931531    0.0517715    0.8684007
   0.0674790    0.4064720    0.0251310    0.4993006    0.7489249    0.4356724
   0.0670260    0.4064260    0.0246380    0.1944335    0.9680040   -0.1586313
   0.0644340    0.3995720    0.0267040    0.3309097    0.2552009    0.9084995
   0.0642620    0.4012700    0.0257190    0.2307808    0.0257989    0.9726637
   0.0659420    0.4039970    0.0266550    0.3109948    0.0332019    0.9498315
   0.0657520    0.4060290    0.0256450    0.3561194    0.6300479    0.6900860
   0.0652370    0.4069890    0.0253300    0.1920857    0.9757755   -0.1047150
   0.0638140    0.4059200    0.0229990    0.1300492    0.9839205    0.1224240
   0.0621690    0.4001520    0.0271210    0.3203386    0.4507727    0.8331790
   0.0623730    0.4011270    0.0266520    0.1091077    0.1048846    0.9884810
   0.0632660    0.4042200    0.0272720    0.0721197    0.0679073    0.9950816
   0.0641350    0.4065060    0.0265780    0.1499897    0.4854794    0.8612856
   0.0632940    0.4076220    0.0255540    0.2440168    0.9617735    0.1242880
   0.0623590    0.4060850    0.0235140    0.2127611    0.9726415   -0.0932803
   0.0604850    0.4009840    0.0275850    0.3339389    0.5682802    0.7520256
   0.0604480    0.4023410    0.0264080   -0.0190542    0.2298394    0.9730420
   0.0612740    0.4051150    0.0268020   -0.2914795    0.1771670    0.9400274
   0.0619790    0.4065050    0.0261410   -0.1096061    0.5041324    0.8566429
   0.0619890    0.4074690    0.0256490   -0.0226140    0.9388386    0.3436141
   0.0585190    0.4016910    0.0280350    0.3062798    0.6860399    0.6599561
   0.0596470    0.4027370    0.0263110   -0.0625106    0.4414434    0.8951090
   0.0606070    0.4056540    0.0262610   -0.4874587    0.3062864    0.8176629
   0.0604810    0.4069280    0.0259700   -0.1834429    0.8442370    0.5035997
   0.0597610    0.4067720    0.0232200    0.3453592    0.9311939   -0.1166402
   0.0583500    0.4036520    0.0259220    0.4032876    0.4936637    0.7704902
   0.0591280    0.4058380    0.0249860    0.2383718    0.2555956    0.9369364
   0.0595850    0.4073300    0.0247440    0.3104598    0.7846541    0.5365936
   0.0578050    0.4017800    0.0281800    0.4562498    0.6665973    0.5894779
   0.0576670    0.4029130    0.0270010    0.6720264    0.2864284    0.6828904
   0.0586350    0.4058100    0.0269530    0.7804769    0.1254624    0.6124664
   0.0581540    0.4087110    0.0254350    0.6360545    0.6144127    0.4668315
   0.0577070    0.4089120    0.0238140    0.4344144    0.8677691   -0.2413730
   0.0569820    0.4075300    0.0226860    0.0808568    0.9711814   -0.2242072
   0.0567080    0.4023220    0.0289440    0.4815525    0.6831879    0.5489640
   0.0565480    0.4034660    0.0279830    0.3364552    0.3165678    0.8868950
   0.0572440    0.4057060    0.0279350    0.2493608    0.2325516    0.9400739
   0.0570740    0.4082180    0.0264660    0.2724361    0.7987851    0.5363962
   0.0566560    0.4088940    0.0243770    0.0772882    0.9438354   -0.3212496
   0.0551600    0.4073700    0.0229580    0.1408557    0.9036608   -0.4044215
   0.0547390    0.4035580    0.0291350    0.3762354    0.8542584    0.3587333
   0.0545540    0.4033850    0.0280050    0.0448765    0.5599338    0.8273211
   0.0554280    0.4065220    0.0277150   -0.0367947    0.3276323    0.9440886
   0.0558840    0.4082630    0.0263440    0.1945524    0.7383012    0.6458023
   0.0557810    0.4092870    0.0249400    0.2941955    0.9350803   -0.1976709
   0.0530310    0.4044010    0.0298250    0.5845032    0.8078970   -0.0752231
   0.0524230    0.4041630    0.0279870    0.2605370    0.7824105    0.5656450
   0.0532300    0.4070190    0.0274700   -0.1469886    0.4067872    0.9016199
   0.0538040    0.4099250    0.0253810   -0.0692105    0.8207208    0.5671220
   0.0538710    0.4098950    0.0247200    0.0545064    0.9663319   -0.2514590
   0.0534830    0.4086120    0.0231720    0.2025486    0.8537220   -0.4797216
   0.0515370    0.4056770    0.0302910    0.6111831    0.7816255   -0.1245663
   0.0504820    0.4056590    0.0268320    0.7247360    0.6648336    0.1809809
   0.0509940    0.4077830    0.0265410    0.4576599    0.3032056    0.8358312
   0.0511790    0.4089180    0.0251620    0.6025690    0.7975264   -0.0293622
   0.0508630    0.4090590    0.0242340    0.0655585    0.9201826   -0.3859613
   0.0502360    0.4065830    0.0299020    0.4442478    0.8050377   -0.3931389
   0.0497680    0.4062760    0.0287500    0.8004501    0.5502411    0.2377275
   0.0503910    0.4090230    0.0279900    0.8165906    0.1897108    0.5451511
   0.0503770    0.4102460    0.0265870    0.7635081    0.5512817    0.3363686
   0.0496850    0.4115350    0.0248920    0.5643823    0.6394556   -0.5220816
   0.0491430    0.4108000    0.0246510    0.2244149    0.4123910   -0.8829335
   0.0478580    0.4094300    0.0241340    0.1034668    0.9670659   -0.2325469
   0.0476900    0.4083790    0.0306890    0.2946298    0.5888445   -0.7526324
   0.0473090    0.4080290    0.0306650    0.4597524    0.8373840   -0.2956615
   0.0475950    0.4102780    0.0294380    0.4756693    0.4508820    0.7552775
   0.0480710    0.4115310    0.0280830    0.5270276    0.7441699    0.4104303
   0.0470430    0.4119920    0.0261710    0.1778620    0.8032479   -0.5684698
   0.0457240    0.4096590    0.0243570    0.0148530    0.9211641   -0.3888908
   0.0452810    0.4106440    0.0319190    0.4725449    0.5083382   -0.7199261
   0.0441070    0.4098840    0.0309340    0.3579138    0.8647807   -0.3522103
   0.0452240    0.4115910    0.0295880    0.1661860    0.6194535    0.7672415
   0.0457900    0.4125550    0.0284840    0.2732909    0.8595396    0.4318609
   0.0457030    0.4130830    0.0271040    0.1475116    0.8854952   -0.4406116
   0.0448690    0.4127190    0.0265880   -0.0089307    0.5926669   -0.8053982
   0.0446950    0.4103610    0.0253390    0.2571751    0.7811050   -0.5689780
   0.0434070    0.4131730    0.0316250    0.4633628    0.3572206   -0.8109799
   0.0425860    0.4108990    0.0307390    0.3226618    0.7943035   -0.5147536
   0.0432250    0.4120000    0.0293680   -0.4126356    0.7586757    0.5041260
   0.0430800    0.4132830    0.0272790   -0.2679905    0.9607321    0.0719374
   0.0428740    0.4126460    0.0266190    0.1355849    0.6844166   -0.7163732
   0.0433990    0.4114320    0.0258290    0.1996898    0.6054640   -0.7704138
   0.0395220    0.4126750    0.0296870   -0.3353670    0.3542870   -0.8729317
   0.0391590    0.4095910    0.0281670   -0.4108162    0.6871604   -0.5992000
   0.0410910    0.4112510    0.0260530   -0.8415109    0.5248772   -0.1279188
   0.0415910    0.4122440    0.0256100    0.0152048    0.8593821   -0.5111078
   0.0423600    0.4061890    0.0248730   -0.6790741   -0.1313150   -0.7222290
   0.0425730    0.4082250    0.0239210   -0.7497515   -0.3493969   -0.5619559
   0.0430420    0.4108630    0.0226940   -0.6127582    0.2280225   -0.7566592
   0.0430410    0.4115930    0.0233300   -0.1380499    0.8557421   -0.4986458
   0.0440170    0.4056340    0.0234960   -0.4244340   -0.1936376   -0.8845113
   0.0443260    0.4089630    0.0220520   -0.4997024   -0.1146145   -0.8585808
   0.0452360    0.4101180    0.0220520   -0.1039369    0.7927219   -0.6006573
   0.0455580    0.4051480    0.0232320   -0.1434695   -0.0829041   -0.9861762
   0.0461270    0.4059320    0.0232570   -0.0239519   -0.0868031   -0.9959375
   0.0468170    0.4088080    0.0211920    0.0652294   -0.3434368   -0.9369078
   0.0478170    0.4101770    0.0211920    0.2572981    0.5181581   -0.8156653
   0.0474390    0.4108360    0.0226900    0.1146773    0.9553520    0.2723080
   0.0480030    0.4044680    0.0230580   -0.1692237    0.1552754   -0.9732692
   0.0495360    0.4061260    0.0240330   -0.2519447   -0.1106782   -0.9613918
   0.0499320    0.4077700    0.0230810   -0.0811453    0.7747730   -0.6270106
   0.0507740    0.4025720    0.0220690   -0.3526576    0.1155017   -0.9285968
   0.0512810    0.4044630    0.0222710   -0.4902084   -0.0430857   -0.8705397
   0.0518450    0.4078890    0.0199150   -0.5167503    0.1167311   -0.8481409
   0.0531760    0.4094780    0.0208670    0.1996314    0.9457710   -0.2562508
   0.0536900    0.4092480    0.0218270    0.2969395    0.9535287   -0.0510880
   0.0532630    0.4024080    0.0212090   -0.2121981    0.0624255   -0.9752308
   0.0535020    0.4047050    0.0209180   -0.3017834   -0.2966675   -0.9060437
   0.0539360    0.4059720    0.0197650   -0.2000648   -0.2011010   -0.9589226
   0.0553230    0.4075460    0.0202820    0.1311756    0.7969582   -0.5896190
   0.0551180    0.4073890    0.0213860    0.4000637    0.9086619    0.1195098
   0.0559540    0.4018810    0.0215020   -0.0048109   -0.0457965   -0.9989392
   0.0562540    0.4036100    0.0207920   -0.0093368   -0.4252939   -0.9050071
   0.0569880    0.4056630    0.0196640    0.2515371   -0.3968643   -0.8827388
   0.0582070    0.4072190    0.0194700    0.3004333    0.4218810   -0.8554275
   0.0580590    0.4080150    0.0216540    0.4100523    0.8960079   -0.1703728
   0.0580200    0.4013980    0.0210620    0.0466360    0.0908429   -0.9947727
   0.0596200    0.4024860    0.0216270    0.1373360   -0.1307054   -0.9818630
   0.0596260    0.4065830    0.0216490    0.2112307    0.6208107   -0.7549674
   0.0596010    0.3998160    0.0208380   -0.1514613    0.4068781   -0.9008383
   0.0606880    0.4014210    0.0213300   -0.3574922    0.2050004   -0.9111389
   0.0616550    0.4047030    0.0201520   -0.4372340    0.0543177   -0.8977060
   0.0616700    0.4076120    0.0206910   -0.2590650    0.6480093   -0.7162187
   0.0620780    0.4076780    0.0216260   -0.0235472    0.9700200    0.2418817
   0.0611020    0.3990750    0.0201310   -0.3977889    0.2218044   -0.8902622
   0.0618130    0.4014030    0.0201060   -0.4069543    0.0608259   -0.9114211
   0.0631940    0.4035230    0.0192430   -0.2758965    0.1001844   -0.9559520
   0.0636230    0.4069840    0.0204760    0.1076388    0.9562487   -0.2720335
   0.0626090    0.3988680    0.0191740   -0.2607375    0.1262979   -0.9571128
   0.0637560    0.4007070    0.0198820   -0.2175470   -0.0108088   -0.9759900
   0.0649600    0.4029700    0.0187780    0.0057023   -0.0276991   -0.9996000
   0.0667840    0.4072720    0.0196640    0.2057216    0.7922191   -0.5745150
   0.0656670    0.4072850    0.0208890    0.2584412    0.9011688    0.3479985
   0.0651460    0.3989550    0.0187570   -0.3422486    0.2959925   -0.8917703
   0.0658450    0.4002130    0.0192160   -0.2099994    0.2175345   -0.9531941
   0.0683030    0.4058520    0.0201020   -0.0958076    0.2777660   -0.9558593
   0.0664630    0.3983050    0.0177990   -0.4955453    0.2622233   -0.8280542
   0.0670340    0.3999000    0.0184600   -0.4937592    0.3202216   -0.8084924
   0.0677150    0.4044180    0.0176520   -0.5897266    0.3803559   -0.7124268
   0.0688850    0.4060790    0.0181350   -0.4920767    0.8492289   -0.1914964
   0.0679410    0.3981130    0.0170580   -0.3246689    0.2965943   -0.8981213
   0.0683960    0.3992280    0.0170580   -0.1745135   -0.0194200   -0.9844633
   0.0695870    0.4033280    0.0163240   -0.3464919    0.2158294   -0.9128861
   0.0702760    0.4061840    0.0171530   -0.1371688    0.7975806   -0.5874095
   0.0701930    0.3986040    0.0163680   -0.2540727    0.4542550   -0.8538732
   0.0717060    0.4008000    0.0173270   -0.2559576    0.1429460   -0.9560608
   0.0718480    0.4049980    0.0160270    0.0123618    0.1191557   -0.9927986
   0.0715330    0.4056190    0.0168650    0.2094347    0.8681475   -0.4499522
   0.0711330    0.3978760    0.0162720   -0.1349496    0.3711501   -0.9187144
   0.0721560    0.4005780    0.0169330   -0.2334078    0.1769588   -0.9561414
   0.0735670    0.4042260    0.0171340   -0.1079265    0.9085056   -0.4036948
   0.0715520    0.3976690    0.0161030   -0.3021171    0.4628345   -0.8333723
   0.0725310    0.3995910    0.0165630   -0.3788812    0.2719834   -0.8845756
   0.0731540    0.4024560    0.0160550   -0.7011957    0.2062919   -0.6824722
   0.0738580    0.4045750    0.0160290   -0.4429945    0.8714734   -0.2104519
   0.0752320    0.4044470    0.0163940   -0.1698973    0.9853889    0.0119819
   0.0736810    0.3968810    0.0141150   -0.3322680    0.5459479   -0.7691156
   0.0745860    0.3980380    0.0145990   -0.3353849    0.3094837   -0.8897959
   0.0747860    0.4012430    0.0142590   -0.3137047    0.0070957   -0.9494941
   0.0759900    0.4038670    0.0140410   -0.1855338    0.3709709   -0.9099219
   0.0764170    0.4046440    0.0153870    0.2260290    0.9433155   -0.2430366
   0.0767550    0.4044930    0.0160960    0.1030603    0.9342428   -0.3414220
   0.0745570    0.3964480    0.0135440   -0.4180484    0.5966639   -0.6850020
   0.0758420    0.3987570    0.0146960   -0.2817701    0.2284782   -0.9318816
   0.0780950    0.4031620    0.0142850    0.2957023    0.8618380   -0.4120625
   0.0756480    0.3961730    0.0116580   -0.6226654    0.6163702   -0.4820535
   0.0767390    0.3977870    0.0121510   -0.7395872    0.4576745   -0.4935027
   0.0775840    0.4009560    0.0123190   -0.7420185    0.4177583   -0.5242963
   0.0788830    0.4035370    0.0132300   -0.5860332    0.7889162   -0.1848687
   0.0771330    0.3957140    0.0100400   -0.6734706    0.5131204   -0.5321135
   0.0776320    0.3976090    0.0102330   -0.6399605    0.3563132   -0.6808021
   0.0792710    0.4009270    0.0104750   -0.6328510    0.3871756   -0.6705182
   0.0814380    0.4028790    0.0099360   -0.5167545    0.4705178   -0.7152466
   0.0772440    0.3956590    0.0089360   -0.6038029    0.5236266   -0.6010301
   0.0796100    0.3979710    0.0092990   -0.6762014    0.4285120   -0.5992738
   0.0808150    0.4007230    0.0090820   -0.7184561    0.5185151   -0.4636410
   0.0830380    0.4036270    0.0096140   -0.2963251    0.5952670   -0.7468927
   0.0776860    0.3954410    0.0085410   -0.5931628    0.6898563   -0.4150375
   0.0793340    0.3970320    0.0084130   -0.8018905    0.5554474   -0.2201131
   0.0810420    0.4008700    0.0077510   -0.8309384    0.5241022   -0.1867036
   0.0825100    0.4026460    0.0082680   -0.6159447    0.7170170   -0.3263415
   0.0785870    0.3952590    0.0066240   -0.6855188    0.6071159   -0.4018386
   0.0792910    0.3970530    0.0068500   -0.7609322    0.4258034   -0.4895647
   0.0813250    0.4004930    0.0060100   -0.7148706    0.3838517   -0.5844809
   0.0833320    0.4020280    0.0052450   -0.6938102    0.5024258   -0.5159416
   0.0793000    0.3946430    0.0047140   -0.7340202    0.6570939   -0.1715869
   0.0815990    0.3967250    0.0048600   -0.7892473    0.5271267   -0.3150019
   0.0839060    0.4003120    0.0042640   -0.7592283    0.5708510   -0.3125725
   0.0789340    0.3942860    0.0044630   -0.7264868    0.6838100    0.0679760
   0.0810790    0.3964440    0.0041420   -0.7523033    0.6371339    0.1676313
   0.0825550    0.3997010    0.0030370   -0.7484508    0.6585388    0.0784094
   0.0837110    0.4006400    0.0031110   -0.5784695    0.8156160    0.0119812
   0.0846980    0.4012510    0.0029910   -0.8264579    0.5426766   -0.1498983
   0.0789360    0.3942850    0.0024570   -0.7800633    0.5867247   -0.2173829
   0.0800230    0.3956250    0.0020620   -0.7793382    0.4831813   -0.3989583
   0.0816320    0.3984080    0.0018850   -0.7477228    0.4122241   -0.5205593
   0.0831220    0.3999350    0.0012970   -0.6066984    0.6546136   -0.4509967
   0.0850070    0.4007860    0.0010000   -0.7338434    0.6676119   -0.1255715
   0.0425220    0.4157510    0.0334360    0.5114015    0.4831719   -0.7106430
   0.0390660    0.4158540    0.0319660   -0.1393175    0.4899025   -0.8605732
   0.0417560    0.4182710    0.0341530    0.4866135    0.3856673   -0.7838801
   0.0386150    0.4187570    0.0333670   -0.1225997    0.4426547   -0.8882715
   0.0416780    0.4207250    0.0349330    0.3147782    0.3867616   -0.8667930
   0.0385380    0.4206720    0.0343980   -0.1683274    0.4597573   -0.8719456
   0.0411820    0.4233860    0.0358900    0.1942200    0.4205985   -0.8862141
   0.0383230    0.4229200    0.0356210   -0.2341953    0.4685383   -0.8518359
   0.0413440    0.4251730    0.0365110    0.1164171    0.3729326   -0.9205261
   0.0381530    0.4246070    0.0366520   -0.2884076    0.5037586   -0.8142778
   0.0421190    0.4280070    0.0375900   -0.0743491    0.3782427   -0.9227159
   0.0383420    0.4266550    0.0379330   -0.3079536    0.5573356   -0.7710653
   0.0428380    0.4311330    0.0382020   -0.2532144    0.3471564   -0.9029756
   0.0385800    0.4281520    0.0390130   -0.3409433    0.5028586   -0.7942864
