NORM_ASCII
1458 1792
   0.0967353    0.0892819    0.0264527    0.5570196   -0.0413295    0.8294703
   0.0907812    0.0691498    0.0306122    0.6897225   -0.1901751    0.6986532
   0.1058894    0.0894048    0.0214317    0.7168389   -0.2350633    0.6564200
   0.1035286    0.0902539    0.0227043    0.3782835    0.0716135    0.9229156
   0.1022874    0.0908669    0.0233267    0.6744360    0.1267773    0.7273676
   0.1008827    0.0906343    0.0247507    0.5908584   -0.1078833    0.7995296
   0.0877485    0.0678114    0.0323977    0.4965526   -0.4106389    0.7647295
   0.1059477    0.0909240    0.0213748    0.7183236   -0.1825761    0.6713249
   0.0817923    0.0673224    0.0339646    0.0858138   -0.7158254    0.6929863
   0.0780073    0.0667253    0.0318243   -0.2876408   -0.8760306    0.3870829
   0.1082756    0.0951949    0.0193524    0.9543813   -0.2915567    0.0644283
   0.1077108    0.0951717    0.0216255    0.7462751   -0.2075330    0.6324584
   0.1085757    0.0975978   -0.0210839    0.7703189    0.1795884   -0.6118470
   0.1037462    0.0920111   -0.0221350    0.1247097    0.1020501   -0.9869312
   0.1058501    0.0962841   -0.0224246    0.0404484   -0.0033990   -0.9991758
   0.1057639    0.0991373   -0.0220219    0.0570049    0.3543158   -0.9333867
   0.1009535    0.0554437   -0.0059009   -0.0539997   -0.9985338    0.0037765
   0.1006845    0.0562233    0.0000217   -0.2249678   -0.9733851    0.0437137
   0.1001000    0.0552882   -0.0115796   -0.1579793   -0.9868937    0.0329135
   0.1009535    0.0554437    0.0059009   -0.2842572   -0.9586810    0.0113423
   0.0967532    0.0563152   -0.0153695   -0.3740848   -0.9170319    0.1382502
   0.1001000    0.0552882    0.0115796   -0.1294261   -0.9895436    0.0636574
   0.0933558    0.0576754   -0.0188884   -0.4958853   -0.8487647    0.1835653
   0.0967532    0.0563152    0.0153695   -0.2332212   -0.9709404    0.0536898
   0.0898379    0.0592978   -0.0221909   -0.6152111   -0.7700320    0.1690148
   0.0933558    0.0576754    0.0188884   -0.4661379   -0.8803503   -0.0877426
   0.0867882    0.0618017   -0.0256980   -0.6027307   -0.7967898    0.0429143
   0.0898379    0.0592978    0.0221909   -0.5602711   -0.8134322   -0.1562828
   0.0820643    0.0643081   -0.0287712   -0.5455946   -0.8282919    0.1275110
   0.0867882    0.0618017    0.0256980   -0.5767403   -0.7943579   -0.1906994
   0.0820643    0.0643081    0.0287712   -0.5123521   -0.8562590   -0.0656952
   0.0776348    0.0670641   -0.0313278   -0.5974531   -0.7526958    0.2765841
   0.0776348    0.0670641    0.0313278   -0.5592839   -0.8246361   -0.0847164
   0.0897417    0.0739965   -0.0325904    0.6849785   -0.1656046   -0.7094925
   0.0907882    0.0772535   -0.0319727    0.7076435   -0.0377566   -0.7055601
   0.0879775    0.0712285   -0.0335742    0.5124506   -0.3945302   -0.7627190
   0.0922558    0.0804310   -0.0309881    0.6758919   -0.0859188   -0.7319755
   0.0832434    0.0698309   -0.0352331    0.1953433   -0.6451466   -0.7386656
   0.0772319    0.0701971   -0.0362838   -0.0956886   -0.7736034   -0.6264037
   0.0928248    0.0868745   -0.0318428    0.7817834    0.2506105   -0.5709721
   0.0928229    0.0902879   -0.0293726    0.5904502    0.0042445   -0.8070629
   0.0890013    0.0817251   -0.0335802    0.7667433   -0.1612898   -0.6213617
   0.0961047    0.0929941   -0.0277817    0.5251523    0.3377193   -0.7811279
   0.0972405    0.0927500   -0.0268791    0.4717046    0.3383284   -0.8142658
   0.0990544    0.0912325   -0.0255687    0.4909895    0.1408394   -0.8597055
   0.1018097    0.0938936   -0.0210889    0.5686029    0.1451100   -0.8097122
   0.1006167    0.0926306   -0.0243770    0.7217730    0.0138643   -0.6919909
   0.0992415    0.0929928   -0.0252607    0.4302809    0.0893274   -0.8982644
   0.0734391    0.0696937   -0.0341582   -0.4211243   -0.8638329   -0.2764906
   0.0732158    0.0699388   -0.0337350   -0.6149179   -0.7525713    0.2356107
   0.0911290    0.0622024    0.0173367   -0.7504785   -0.3783725   -0.5418638
   0.0880862    0.0641312    0.0200369   -0.6944413   -0.3171914   -0.6458645
   0.0888758    0.0772849    0.0178020   -0.6295203    0.0119789   -0.7768917
   0.0924932    0.0835277    0.0175100   -0.5903294    0.3540155   -0.7253856
   0.0978728    0.0896507    0.0172396   -0.4042549    0.5104312   -0.7589716
   0.0993058    0.0917290    0.0180881   -0.3025905    0.4628968   -0.8331660
   0.1017659    0.0908185    0.0157906   -0.3324084    0.5458647   -0.7691140
   0.1028120    0.0921548    0.0163495   -0.3354103    0.3095327   -0.8897693
   0.0945687    0.0904494   -0.0192972   -0.3922919    0.2153948    0.8942663
   0.0886384    0.0829762   -0.0195933   -0.4013632    0.1511092    0.9033679
   0.0977362    0.0928087   -0.0183937   -0.2633082    0.4253902    0.8658591
   0.0951336    0.0922414   -0.0191919   -0.3762409    0.2454569    0.8934169
   0.0988222    0.0919678   -0.0182837   -0.1068559    0.3237159    0.9401010
   0.0849098    0.0777253   -0.0199692   -0.5447193   -0.0901326    0.8337607
   0.1004374    0.0939493   -0.0186191   -0.5168516    0.3374197    0.7867734
   0.0840104    0.0666077   -0.0227679   -0.6977978   -0.3840988    0.6046043
   0.1011576    0.0972598   -0.0180319   -0.8124697    0.2276661    0.5367133
   0.1019709    0.0997092   -0.0180027   -0.4425558    0.8685332    0.2231465
   0.1035591    0.0995615   -0.0184239   -0.1589764    0.9813810    0.1077862
   0.1048903    0.1012135   -0.0205478   -0.2480227    0.9683172   -0.0290944
   0.1074731    0.1000541   -0.0206068    0.5270332    0.7511796   -0.3974483
   0.1030436    0.0958589    0.0159568   -0.3136567    0.0071577   -0.9495095
   0.1044351    0.0988908    0.0157052   -0.1854282    0.3709689   -0.9099442
   0.1049283    0.0997888    0.0172601    0.2262369    0.9432228   -0.2432029
   0.1053187    0.0996136    0.0180804    0.1032652    0.9341645   -0.3415743
   0.1083248    0.0996715    0.0191540    0.7363904    0.6178651   -0.2756300
   0.1057146    0.1005661    0.0183415    0.0484220    0.7936629   -0.6064277
   0.1087340    0.0980806    0.0192676    0.9976731    0.0423420    0.0534365
   0.0922558    0.0804310    0.0309881    0.6804271   -0.1565607    0.7158965
   0.0907882    0.0772535    0.0319727    0.6920328   -0.0915471    0.7160376
   0.0897417    0.0739965    0.0325904    0.7046669   -0.1164890    0.6999106
   0.0928229    0.0902879    0.0293726    0.6207565   -0.0263402    0.7835609
   0.0928248    0.0868745    0.0318428    0.6662718    0.1857607    0.7222014
   0.0890013    0.0817251    0.0335802    0.7365392   -0.1100632    0.6673801
   0.0879775    0.0712285    0.0335742    0.6052604   -0.2517851    0.7551583
   0.0972405    0.0927500    0.0268791    0.3343183    0.1423639    0.9316457
   0.0961047    0.0929941    0.0277816    0.4849627    0.2844348    0.8269873
   0.0990544    0.0912325    0.0255687    0.3943834    0.0410800    0.9180273
   0.0832434    0.0698309    0.0352331    0.3436840   -0.4771471    0.8088337
   0.1037462    0.0920111    0.0221350    0.1277230    0.1071322    0.9860069
   0.1018097    0.0938936    0.0210889    0.5563007    0.1819418    0.8108185
   0.1006167    0.0926306    0.0243770    0.7256658    0.0388273    0.6869509
   0.0992415    0.0929928    0.0252607    0.3348128    0.0168105    0.9421347
   0.0772319    0.0701971    0.0362838   -0.0165009   -0.7048862    0.7091285
   0.1058502    0.0962841    0.0224246    0.0134052    0.0413898    0.9990531
   0.0734391    0.0696937    0.0341582   -0.4378219   -0.8645993    0.2465359
   0.0732158    0.0699388    0.0337349   -0.6390179   -0.7245415   -0.2582552
   0.1085757    0.0975978    0.0210839    0.7601858    0.1551286    0.6309142
   0.1057639    0.0991373    0.0220219    0.0354628    0.3777274    0.9252375
   0.1029713    0.0978533   -0.0215442    0.5041824    0.3998752   -0.7654410
   0.1022072    0.0996034   -0.0203502    0.0464774    0.9838497   -0.1728574
   0.0802801    0.0676343   -0.0257174   -0.6631083   -0.4744508    0.5789507
   0.0840104    0.0666077    0.0227679   -0.6428683   -0.3555445   -0.6784604
   0.0765533    0.0697794   -0.0283835   -0.6657622   -0.4978876    0.5557594
   0.0802801    0.0676343    0.0257174   -0.6557952   -0.4415393   -0.6123526
   0.0765533    0.0697794    0.0283835   -0.6780879   -0.4807672   -0.5559314
   0.0728015    0.0724671   -0.0306481   -0.6557258   -0.4960457    0.5691769
   0.0728015    0.0724671    0.0306481   -0.6732152   -0.4791307   -0.5632185
   0.0871029    0.0759750   -0.0354019    0.6006705   -0.1046737   -0.7926149
   0.0879728    0.0797436   -0.0348792    0.6243972   -0.1434892   -0.7678144
   0.0843816    0.0740435   -0.0368164    0.4247465   -0.3697742   -0.8263519
   0.0788671    0.0721553   -0.0375521    0.1282478   -0.6397753   -0.7577863
   0.0725131    0.0730004   -0.0383449   -0.1107588   -0.7935954   -0.5982799
   0.0689268    0.0727410   -0.0365447   -0.3601606   -0.8813982   -0.3056494
   0.0883590    0.0887755   -0.0354429    0.7442560    0.3387988   -0.5755853
   0.0891429    0.0917886   -0.0320413    0.4580229    0.4195325   -0.7837139
   0.0887917    0.0837905   -0.0358985    0.7696942   -0.1044162   -0.6298160
   0.0910807    0.0939274   -0.0303382    0.3196074    0.2965117   -0.8999622
   0.0932740    0.0928442   -0.0295668    0.4647984    0.0878355   -0.8810490
   0.0953490    0.0927458   -0.0284886    0.7248057    0.1812176   -0.6646930
   0.0844768    0.0820028   -0.0372320    0.5834258   -0.2899127   -0.7586600
   0.0946854    0.0949378   -0.0249749    0.6991398    0.5015458   -0.5095640
   0.0969956    0.0944187   -0.0252294    0.1053662    0.4008621   -0.9100591
   0.1022523    0.0976225   -0.0243197    0.9008571   -0.0567329   -0.4303926
   0.1020056    0.0999824   -0.0234146    0.8809880    0.4224556   -0.2130526
   0.1004928    0.0978473   -0.0256880    0.4440756   -0.0055348   -0.8959722
   0.0987028    0.0983628   -0.0259925    0.3225169    0.0694360   -0.9440135
   0.0687156    0.0728431   -0.0359371   -0.5816951   -0.7893913    0.1961941
   0.0690455    0.0748785   -0.0330138   -0.6320302   -0.4588894    0.6244665
   0.0849098    0.0777253    0.0199692   -0.5632535    0.0749855   -0.8228746
   0.0886384    0.0829762    0.0195933   -0.4148596    0.2606134   -0.8717638
   0.0945687    0.0904494    0.0192972   -0.4186535    0.1729246   -0.8915303
   0.0951336    0.0922414    0.0191919   -0.3246933    0.2964997   -0.8981438
   0.0977362    0.0928087    0.0183937   -0.2544433    0.4544780   -0.8536442
   0.0988222    0.0919678    0.0182837   -0.1355391    0.3714406   -0.9185102
   0.1004374    0.0939493    0.0186191   -0.3791071    0.2720789   -0.8844494
   0.1011576    0.0972598    0.0180319   -0.7012094    0.2063206   -0.6824494
   0.0909678    0.0912366   -0.0208224   -0.2919364    0.2030406    0.9346377
   0.0816913    0.0811383   -0.0206795   -0.4211214   -0.0374101    0.9062324
   0.0934258    0.0924632   -0.0200478   -0.4614301    0.2417520    0.8536031
   0.0919038    0.0932150   -0.0211549   -0.2773052    0.3226450    0.9049873
   0.0810106    0.0766983   -0.0221171   -0.5698484   -0.3000547    0.7650098
   0.0994845    0.0953463   -0.0195027   -0.2563378    0.1431345    0.9559307
   0.1000037    0.0950898   -0.0190470   -0.4141633    0.2264142    0.8815925
   0.0956594    0.0935298   -0.0191917   -0.1936679   -0.0521972    0.9796776
   0.0940857    0.0943070   -0.0208112   -0.6890291    0.3154296    0.6524899
   0.1016351    0.0993061   -0.0192788   -0.2076800    0.8666538    0.4536301
   0.1019709    0.0997092    0.0180027   -0.4429202    0.8714503   -0.2107039
   0.1035591    0.0995615    0.0184239   -0.1696857    0.9854267    0.0118732
   0.1048903    0.1012135    0.0205478   -0.2555310    0.9595947    0.1178215
   0.1074731    0.1000541    0.0206068    0.5471767    0.7225816    0.4224613
   0.0879728    0.0797436    0.0348792    0.7148070   -0.1025603    0.6917604
   0.0871029    0.0759750    0.0354019    0.6067537   -0.0918359    0.7895671
   0.0843816    0.0740435    0.0368164    0.4772704   -0.2991121    0.8262838
   0.0891429    0.0917886    0.0320413    0.5180401    0.3673375    0.7724620
   0.0883590    0.0887755    0.0354429    0.6344958    0.3137057    0.7064020
   0.0932740    0.0928442    0.0295668    0.4637406    0.1083356    0.8793225
   0.0910807    0.0939274    0.0303382    0.3308761    0.2551244    0.9085332
   0.0953490    0.0927458    0.0284886    0.7070072    0.2860864    0.6467575
   0.0887917    0.0837905    0.0358985    0.6884668   -0.0841950    0.7203642
   0.0844769    0.0820028    0.0372320    0.7283257   -0.2074398    0.6530776
   0.0788671    0.0721553    0.0375521    0.1967800   -0.5742012    0.7947142
   0.0969956    0.0944187    0.0252294   -0.0059497    0.1918381    0.9814085
   0.0946854    0.0949378    0.0249749    0.6770328    0.3326843    0.6564660
   0.0725131    0.0730004    0.0383449   -0.0767943   -0.7673577    0.6366041
   0.1029713    0.0978533    0.0215442    0.4761284    0.4467267    0.7574543
   0.1022523    0.0976225    0.0243197    0.9082313   -0.0374344    0.4167909
   0.1020056    0.0999824    0.0234146    0.8261601    0.2803540    0.4887342
   0.1004928    0.0978473    0.0256880    0.4556460    0.0293485    0.8896771
   0.0987028    0.0983628    0.0259925    0.0181551    0.1231682    0.9922197
   0.0689268    0.0727410    0.0365447   -0.3972647   -0.8836617    0.2476344
   0.0687157    0.0728431    0.0359371   -0.6322713   -0.7309301   -0.2568544
   0.0690455    0.0748785    0.0330138   -0.6674300   -0.4620924   -0.5839588
   0.1022072    0.0996034    0.0203502    0.0328199    0.9210508    0.3880570
   0.1011898    0.1017558   -0.0227331    0.3088041    0.8752352    0.3722948
   0.0996280    0.1018917   -0.0220506    0.3932107    0.7730881    0.4977150
   0.0995199    0.1005328   -0.0203013    0.3301960    0.8477233    0.4151334
   0.0992847    0.1009153   -0.0189685    0.2189924    0.8082178    0.5466502
   0.0773633    0.0765520   -0.0248575   -0.6135375   -0.4056282    0.6775230
   0.0810106    0.0766983    0.0221171   -0.6148485   -0.0582577   -0.7864905
   0.0737974    0.0776790   -0.0275502   -0.6290279   -0.3880389    0.6736094
   0.0773633    0.0765520    0.0248575   -0.6301546   -0.2748175   -0.7262096
   0.0737974    0.0776790    0.0275502   -0.6422484   -0.3897755   -0.6599940
   0.0702325    0.0799076   -0.0295214   -0.7094570   -0.2739978    0.6493042
   0.0702325    0.0799076    0.0295214   -0.7025380   -0.3154275   -0.6379230
   0.0832623    0.0785820   -0.0381047    0.5417675   -0.2146418   -0.8126604
   0.0808337    0.0765806   -0.0394486    0.3402718   -0.4182658   -0.8421810
   0.0743411    0.0741809   -0.0397211    0.1316901   -0.5871905   -0.7986645
   0.0677763    0.0752117   -0.0407791   -0.0509405   -0.7099676   -0.7023895
   0.0645684    0.0753500   -0.0395718   -0.3319838   -0.8751720   -0.3519385
   0.0641756    0.0753313   -0.0383353   -0.5847629   -0.7851176    0.2040656
   0.0837344    0.0919858   -0.0376813    0.6530953    0.4930186   -0.5748036
   0.0839997    0.0943285   -0.0340008    0.4960459    0.6574741   -0.5671564
   0.0855281    0.0860892   -0.0381733    0.6140165    0.1117411   -0.7813435
   0.0824004    0.0887074   -0.0402109    0.5920751    0.1526929   -0.7912850
   0.0884642    0.0945979   -0.0308195    0.3559036    0.4646922   -0.8107983
   0.0865173    0.0955594   -0.0313563    0.3498289    0.6070298   -0.7135367
   0.0837479    0.0841068   -0.0396894    0.5630170   -0.1613246   -0.8105468
   0.0908825    0.0958900   -0.0291998    0.2760478    0.0521758   -0.9597267
   0.0933576    0.0943509   -0.0292588    0.5004569   -0.0190275   -0.8655524
   0.0886999    0.0957247   -0.0302780    0.1795269    0.1799692   -0.9671511
   0.0946579    0.0943302   -0.0278449    0.9141785   -0.0110764   -0.4051603
   0.0795670    0.0804093   -0.0404303    0.4208174   -0.3490340   -0.8373100
   0.0963218    0.0991546   -0.0252078    0.8150622    0.1285196   -0.5649392
   0.0961129    0.0989718   -0.0285513    0.9126800   -0.0530304   -0.4052197
   0.0958934    0.1007545   -0.0276752    0.8061260    0.5444352   -0.2318430
   0.1004565    0.1012431   -0.0244927    0.3115865    0.7131600   -0.6279464
   0.0989050    0.1022163   -0.0222274   -0.0235062    0.9704114    0.2403107
   0.0979707    0.1015059   -0.0250029    0.3054112    0.8023498   -0.5127952
   0.0962272    0.1014464   -0.0250941    0.2800929    0.9470427   -0.1570292
   0.0652980    0.0777903   -0.0350230   -0.6114389   -0.3907675    0.6880721
   0.0690437    0.0828581   -0.0310687   -0.7238701   -0.2674912    0.6359722
   0.0816913    0.0811383    0.0206795   -0.4475183    0.1711032   -0.8777534
   0.0909678    0.0912366    0.0208224   -0.4023289    0.0999784   -0.9100196
   0.0919038    0.0932150    0.0211548   -0.3423018    0.2959065   -0.8917785
   0.0934258    0.0924632    0.0200478   -0.4955143    0.2619870   -0.8281475
   0.0940857    0.0943070    0.0208112   -0.4937360    0.3201129   -0.8085497
   0.0956594    0.0935298    0.0191917   -0.1744328   -0.0195290   -0.9844754
   0.0994845    0.0953463    0.0195027   -0.2563378    0.1431345   -0.9559307
   0.1000037    0.0950898    0.0190470   -0.2338940    0.1771724   -0.9559830
   0.1016351    0.0993061    0.0192788   -0.1081348    0.9085407   -0.4035600
   0.0872439    0.0919473   -0.0220402   -0.2927145    0.2668887    0.9181986
   0.0776586    0.0802298   -0.0223712   -0.5101779   -0.1425920    0.8481663
   0.0889727    0.0931144   -0.0216362   -0.1577332    0.2830455    0.9460473
   0.0872304    0.0933533   -0.0227422   -0.3010288    0.2921353    0.9077657
   0.0927115    0.0946689   -0.0216848   -0.3665725    0.2576248    0.8940101
   0.0902979    0.0952392   -0.0224551   -0.2170185    0.0894574    0.9720598
   0.0996486    0.1001977   -0.0180004    0.0121935    0.1192098    0.9927942
   0.0970353    0.0982683   -0.0183431   -0.3386831    0.2301169    0.9123267
   0.0948726    0.0995275   -0.0198780   -0.7100371    0.4269912    0.5599338
   0.0955516    0.1011843   -0.0227088   -0.3129922    0.3935640    0.8643745
   0.0832623    0.0785820    0.0381047    0.6358608   -0.0967172    0.7657198
   0.0808337    0.0765806    0.0394486    0.3949561   -0.2952751    0.8699553
   0.0743411    0.0741809    0.0397211    0.1418237   -0.5504247    0.8227507
   0.0839997    0.0943285    0.0340008    0.4948212    0.6087688    0.6201230
   0.0837344    0.0919858    0.0376813    0.6353577    0.4445436    0.6314282
   0.0884642    0.0945979    0.0308195    0.3202628    0.4506760    0.8332604
   0.0865173    0.0955594    0.0313563    0.3338160    0.5682421    0.7521089
   0.0824004    0.0887074    0.0402109    0.6258518    0.2002824    0.7537881
   0.0855281    0.0860892    0.0381732    0.5877749    0.0432322    0.8078686
   0.0946579    0.0943302    0.0278449    0.9170189    0.1003041    0.3860251
   0.0933576    0.0943509    0.0292588    0.4497196    0.0599531    0.8911554
   0.0908825    0.0958900    0.0291998    0.2307251    0.0257130    0.9726792
   0.0886999    0.0957247    0.0302780    0.1090415    0.1047991    0.9884974
   0.0837479    0.0841068    0.0396894    0.5902038   -0.1767424    0.7876685
   0.0795670    0.0804093    0.0404303    0.5643286   -0.1754618    0.8066885
   0.0677763    0.0752117    0.0407791   -0.0897853   -0.7413459    0.6650901
   0.0963218    0.0991546    0.0252078    0.2430870   -0.0369570    0.9693002
   0.0961129    0.0989718    0.0285513    0.8807879   -0.1599896    0.4456636
   0.0958935    0.1007545    0.0276752    0.6396996    0.4962230    0.5869813
   0.0645684    0.0753500    0.0395718   -0.3631636   -0.8784792    0.3104616
   0.0996280    0.1018917    0.0220506    0.4631999    0.8042908   -0.3722394
   0.1011898    0.1017558    0.0227331    0.4204747    0.9042845    0.0739637
   0.1004565    0.1012431    0.0244927    0.2522512    0.5348323    0.8064265
   0.0989050    0.1022163    0.0222274   -0.0586702    0.9972358   -0.0455916
   0.0979707    0.1015059    0.0250029    0.0080219    0.6574765    0.7534324
   0.0962272    0.1014464    0.0250941   -0.0154949    0.8688180    0.4948891
   0.0641756    0.0753313    0.0383353   -0.6332006   -0.7398547   -0.2273150
   0.0652980    0.0777903    0.0350230   -0.6524072   -0.3972197   -0.6454311
   0.0690437    0.0828581    0.0310687   -0.7058956   -0.2615239   -0.6582679
   0.0995199    0.1005328    0.0203013    0.3289169    0.8997689   -0.2867570
   0.0992847    0.1009153    0.0189685    0.2094747    0.8680921   -0.4500405
   0.0983569    0.1013320   -0.0211748   -0.0336676    0.9622800    0.2699699
   0.0978316    0.1015676   -0.0193008   -0.1490183    0.7943356    0.5889181
   0.0738365    0.0812907   -0.0237481   -0.5104178   -0.1473863    0.8472018
   0.0776586    0.0802298    0.0223712   -0.5159292    0.0117329   -0.8565509
   0.0731255    0.0848137   -0.0247782   -0.6084801   -0.0752279    0.7899954
   0.0738365    0.0812907    0.0237481   -0.5144752   -0.1495632   -0.8443614
   0.0731255    0.0848137    0.0247782   -0.5715755   -0.0774889   -0.8168825
   0.0696566    0.0876741   -0.0261542   -0.6423600   -0.1304538    0.7552188
   0.0696566    0.0876741    0.0261542   -0.5918733   -0.0715274   -0.8028511
   0.0763765    0.0776520   -0.0412741    0.2426859   -0.4138566   -0.8773975
   0.0699126    0.0769823   -0.0414445    0.1980655   -0.3705323   -0.9074557
   0.0632495    0.0781245   -0.0431506    0.0388715   -0.5819800   -0.8122735
   0.0603845    0.0784222   -0.0426683   -0.3291766   -0.8790354   -0.3448762
   0.0596895    0.0783225   -0.0404945   -0.6069389   -0.7551009    0.2478865
   0.0615431    0.0806685   -0.0370308   -0.6236423   -0.3560584    0.6959114
   0.0791661    0.0973378   -0.0395827    0.7059836    0.5287299   -0.4712026
   0.0805718    0.0972647   -0.0348254    0.6192092    0.7563543   -0.2109694
   0.0794596    0.0920046   -0.0416194    0.5430134    0.1788839   -0.8204492
   0.0821528    0.0971053   -0.0329268    0.5005083    0.7989970   -0.3333095
   0.0834203    0.0964793   -0.0320432    0.4642750    0.6533982   -0.5979293
   0.0842458    0.0963763   -0.0318765    0.3107394    0.6852026   -0.6587400
   0.0805283    0.0871039   -0.0419109    0.4320849   -0.0459186   -0.9006632
   0.0771023    0.0905931   -0.0430329    0.3318716    0.0103197   -0.9432681
   0.0864752    0.0971279   -0.0299956    0.0319880    0.3127314   -0.9493028
   0.0855493    0.0975851   -0.0298833   -0.0625260    0.4414638   -0.8950979
   0.0758925    0.0826531   -0.0424124    0.2965314   -0.2033575   -0.9331210
   0.0928239    0.0990412   -0.0302809    0.2639294   -0.0327643   -0.9639854
   0.0945326    0.0982741   -0.0297152    0.4414501    0.0019885   -0.8972836
   0.0897317    0.0992992   -0.0309946    0.0776904    0.0684935   -0.9946220
   0.0874298    0.1003325   -0.0304509   -0.2858585    0.2186555   -0.9329923
   0.0726958    0.0807940   -0.0427241    0.2271727   -0.2895076   -0.9298268
   0.0945997    0.1019004   -0.0285198    0.4393693    0.6386460   -0.6317325
   0.0951137    0.1013815   -0.0270494    0.0803713    0.9924332    0.0928267
   0.0940763    0.1018473   -0.0279508    0.1787049    0.9819800    0.0614801
   0.0969353    0.1019705   -0.0235857   -0.3716669    0.9013298    0.2224148
   0.0965119    0.1007532   -0.0225711   -0.2144523    0.9495154    0.2289777
   0.0951156    0.1011032   -0.0237059    0.0170779    0.9986528   -0.0489985
   0.0658588    0.0862736   -0.0325145   -0.6079624   -0.3241818    0.7247675
   0.0666860    0.0909927   -0.0276841   -0.5502742   -0.1528540    0.8208739
   0.0872439    0.0919473    0.0220402   -0.3810188    0.2145861   -0.8993206
   0.0872304    0.0933533    0.0227422   -0.3977005    0.2218592   -0.8902881
   0.0889727    0.0931144    0.0216362   -0.2607086    0.1264277   -0.9571035
   0.0902979    0.0952392    0.0224551   -0.2176826   -0.0106393   -0.9759616
   0.0927115    0.0946689    0.0216848   -0.2100584    0.2175612   -0.9531750
   0.0955516    0.1011843    0.0227088   -0.0964257    0.2778276   -0.9557792
   0.0948726    0.0995275    0.0198780   -0.5897808    0.3802519   -0.7124374
   0.0970353    0.0982683    0.0183431   -0.3464153    0.2158610   -0.9129077
   0.0996486    0.1001977    0.0180004    0.0121935    0.1192098   -0.9927942
   0.0834581    0.0926432   -0.0230178   -0.1797774    0.2587160    0.9490765
   0.0854964    0.0942098   -0.0235591   -0.1846974    0.3293419    0.9259702
   0.0880528    0.0960432   -0.0227141   -0.4069992    0.0982456    0.9081297
   0.0867526    0.0960638   -0.0241280   -0.4643407    0.1488426    0.8730599
   0.0916894    0.0978540   -0.0211787   -0.0443648   -0.0112085    0.9989525
   0.0896481    0.0984935   -0.0217167   -0.3075581    0.1372425    0.9415798
   0.0962241    0.1014473   -0.0204357   -0.5177193    0.8208054    0.2413405
   0.0937967    0.1028253   -0.0222030    0.1660291    0.7850160    0.5968117
   0.0925056    0.1028399   -0.0236180    0.2862178    0.8748922   -0.3906956
   0.0763765    0.0776520    0.0412741    0.3052044   -0.2784956    0.9106539
   0.0699126    0.0769823    0.0414445    0.1337503   -0.4154258    0.8997401
   0.0632495    0.0781245    0.0431506   -0.0416238   -0.6591922    0.7508216
   0.0805718    0.0972647    0.0348254    0.6206651    0.7207421    0.3087161
   0.0791661    0.0973378    0.0395827    0.6791476    0.4637448    0.5689457
   0.0834203    0.0964793    0.0320432    0.4560089    0.6666422    0.5896134
   0.0821528    0.0971053    0.0329268    0.4816423    0.6831648    0.5489139
   0.0842458    0.0963763    0.0318765    0.3060743    0.6861111    0.6599774
   0.0794596    0.0920046    0.0416194    0.5879085    0.2222255    0.7778042
   0.0864752    0.0971279    0.0299956   -0.0193397    0.2297924    0.9730475
   0.0855494    0.0975851    0.0298833   -0.0625300    0.4414584    0.8951002
   0.0805283    0.0871039    0.0419109    0.4522969   -0.0266793    0.8914683
   0.0771023    0.0905931    0.0430329    0.3673779    0.0319393    0.9295232
   0.0945326    0.0982741    0.0297152    0.4932422    0.0519196    0.8683412
   0.0928239    0.0990412    0.0302809    0.3110971    0.0332606    0.9497959
   0.0897317    0.0992992    0.0309945    0.0720936    0.0679267    0.9950821
   0.0874298    0.1003325    0.0304509   -0.2914940    0.1771005    0.9400354
   0.0758925    0.0826531    0.0424124    0.2953222   -0.1785667    0.9385620
   0.0726958    0.0807940    0.0427241    0.2000082   -0.2933477    0.9348496
   0.0603845    0.0784222    0.0426683   -0.3306966   -0.8794868    0.3422612
   0.0945997    0.1019004    0.0285198    0.4994489    0.7488555    0.4356216
   0.0951137    0.1013815    0.0270494    0.1571490    0.9874276    0.0170557
   0.0940763    0.1018473    0.0279508    0.1944884    0.9680364   -0.1583661
   0.0596895    0.0783225    0.0404945   -0.6218471   -0.7429407   -0.2476799
   0.0983569    0.1013320    0.0211748    0.0114266    0.9775992   -0.2101647
   0.0969353    0.1019705    0.0235857   -0.3325495    0.9414668   -0.0552365
   0.0965119    0.1007532    0.0225711   -0.1593573    0.9769060   -0.1423370
   0.0951156    0.1011032    0.0237059    0.0264471    0.9866232    0.1608577
   0.0615431    0.0806685    0.0370308   -0.6264742   -0.3212627   -0.7101552
   0.0658588    0.0862736    0.0325145   -0.6281579   -0.3473418   -0.6962552
   0.0666860    0.0909927    0.0276841   -0.5687607   -0.1820752   -0.8020972
   0.0978316    0.1015676    0.0193008   -0.1371109    0.7975287   -0.5874935
   0.0796386    0.0933992   -0.0238063   -0.2547707    0.1877911    0.9485918
   0.0834581    0.0926432    0.0230177   -0.1740950    0.2651282   -0.9483659
   0.0758374    0.0942462   -0.0246924   -0.2962320    0.0964514    0.9502335
   0.0796386    0.0933992    0.0238063   -0.1590626    0.1650501   -0.9733743
   0.0758374    0.0942462    0.0246924   -0.2334740    0.0790696   -0.9691429
   0.0721686    0.0953287   -0.0258645   -0.3901887    0.0770039    0.9175092
   0.0721686    0.0953287    0.0258645   -0.3728092    0.0965081   -0.9228757
   0.0656560    0.0799221   -0.0434072    0.2483608   -0.2889524   -0.9245666
   0.0587800    0.0805127   -0.0460292    0.1032401   -0.6013174   -0.7923123
   0.0557074    0.0808823   -0.0451664   -0.2915614   -0.9196494   -0.2631292
   0.0553174    0.0807535   -0.0433176   -0.5731652   -0.7402768    0.3513857
   0.0577529    0.0834529   -0.0391134   -0.6223722   -0.3489822    0.7006171
   0.0611448    0.0902161   -0.0336740   -0.6198039   -0.2845506    0.7313509
   0.0752551    0.1026699   -0.0407782    0.7615420    0.5645927   -0.3182590
   0.0747377    0.1023155   -0.0368657    0.6023129    0.7760771    0.1868784
   0.0767855    0.0958527   -0.0424430    0.5492937    0.2227153   -0.8054032
   0.0761774    0.1009825   -0.0344827    0.5683396    0.8156437    0.1082379
   0.0779041    0.0995082   -0.0339448    0.5841870    0.8077063    0.0795995
   0.0798774    0.0985337   -0.0331468    0.3611180    0.9275322   -0.0963215
   0.0729994    0.0930484   -0.0440248    0.3173291    0.0529096   -0.9468383
   0.0819685    0.0984272   -0.0318163    0.4082186    0.5120990   -0.7557197
   0.0832614    0.0977886   -0.0306814    0.7250400    0.2473047   -0.6427732
   0.0796643    0.0983340   -0.0318419    0.0583206    0.8092038   -0.5846263
   0.0840508    0.0986419   -0.0294342    0.4591284    0.4851554   -0.7441944
   0.0743950    0.0852291   -0.0432091    0.2758720   -0.0658445   -0.9589365
   0.0704890    0.0878029   -0.0447539    0.2957831   -0.0510173   -0.9538918
   0.0866592    0.1009554   -0.0298262   -0.4745658    0.2693489   -0.8379967
   0.0849494    0.1011687   -0.0283523    0.2705722    0.2386361   -0.9326540
   0.0706648    0.0829350   -0.0441338    0.2674951   -0.2259208   -0.9366996
   0.0926036    0.1013893   -0.0291146    0.3725048    0.4629593   -0.8043065
   0.0907356    0.1019399   -0.0301928    0.1801351    0.4798956   -0.8586335
   0.0882438    0.1019393   -0.0296871   -0.0731048    0.4318320   -0.8989865
   0.0615288    0.0826246   -0.0458962    0.2462942   -0.3772954   -0.8927415
   0.0920087    0.1024986   -0.0287499    0.2910155    0.9521916   -0.0929575
   0.0926176    0.1010946   -0.0255189    0.1647637    0.9545931   -0.2482035
   0.0903651    0.1012636   -0.0260569    0.1144175    0.9892180   -0.0914137
   0.0886836    0.1014535   -0.0266516    0.1801700    0.9755389    0.1259468
   0.0642821    0.0946299   -0.0296369   -0.5877635   -0.1150072    0.8008167
   0.0688300    0.0969528   -0.0273545   -0.4256048   -0.0483327    0.9036175
   0.0854964    0.0942098    0.0235591   -0.1514151    0.4068417   -0.9008625
   0.0867526    0.0960638    0.0241280   -0.3574474    0.2050558   -0.9111440
   0.0880528    0.0960432    0.0227141   -0.4068911    0.0609633   -0.9114401
   0.0896481    0.0984935    0.0217167   -0.2758984    0.1001396   -0.9559561
   0.0916894    0.0978540    0.0211787    0.0056285   -0.0276927   -0.9996006
   0.0937967    0.1028253    0.0222030    0.2056269    0.7923557   -0.5743606
   0.0925057    0.1028399    0.0236180    0.2584311    0.9011543    0.3480435
   0.0962241    0.1014473    0.0204357   -0.4924978    0.8489501   -0.1916499
   0.0836694    0.0960383   -0.0238179    0.0751867    0.2309484    0.9700566
   0.0812822    0.0965955   -0.0243270   -0.0603118    0.0606274    0.9963367
   0.0855188    0.0972948   -0.0244713    0.0961383   -0.0081775    0.9953344
   0.0878697    0.0998571   -0.0227670   -0.5014146    0.0811300    0.8613950
   0.0855246    0.1020292   -0.0244963    0.1464530    0.6454007    0.7496729
   0.0901445    0.1024925   -0.0231412    0.0779473    0.9632368    0.2570975
   0.0878871    0.1032179   -0.0233891   -0.2590238    0.6479341    0.7163017
   0.0656560    0.0799221    0.0434072    0.1717658   -0.3800577    0.9088744
   0.0587800    0.0805127    0.0460292    0.0241024   -0.6740021    0.7383361
   0.0557074    0.0808823    0.0451664   -0.2697250   -0.9153157    0.2990744
   0.0747377    0.1023155    0.0368657    0.6442469    0.7594144   -0.0907510
   0.0752551    0.1026699    0.0407782    0.7517071    0.4979664    0.4323955
   0.0779041    0.0995082    0.0339448    0.5845341    0.8078792   -0.0751737
   0.0761774    0.1009825    0.0344827    0.6111999    0.7816417   -0.1243819
   0.0798774    0.0985337    0.0331468    0.3763322    0.8542892    0.3585583
   0.0767855    0.0958527    0.0424430    0.5633250    0.2359772    0.7918205
   0.0840508    0.0986419    0.0294342    0.4031130    0.4938288    0.7704758
   0.0832614    0.0977886    0.0306814    0.6718493    0.2865313    0.6830214
   0.0819685    0.0984272    0.0318163    0.3364942    0.3165534    0.8868853
   0.0796643    0.0983340    0.0318419    0.0450423    0.5600105    0.8272602
   0.0729994    0.0930484    0.0440248    0.3223458    0.0356053    0.9459521
   0.0866592    0.1009554    0.0298262   -0.4873693    0.3061599    0.8177636
   0.0849494    0.1011687    0.0283523    0.2382707    0.2556384    0.9369504
   0.0743950    0.0852291    0.0432091    0.2271303   -0.1167742    0.9668379
   0.0704890    0.0878029    0.0447539    0.2850865   -0.0730731    0.9557123
   0.0926036    0.1013893    0.0291146    0.3563242    0.6301780    0.6898614
   0.0907356    0.1019399    0.0301928    0.1500869    0.4857117    0.8611377
   0.0882438    0.1019393    0.0296871   -0.1094502    0.5041260    0.8566666
   0.0706648    0.0829350    0.0441338    0.2100602   -0.2867665    0.9346869
   0.0615288    0.0826246    0.0458962    0.2408110   -0.3823783    0.8920745
   0.0553174    0.0807535    0.0433176   -0.5682200   -0.7719609   -0.2849605
   0.0920087    0.1024986    0.0287499    0.1920270    0.9757940   -0.1046504
   0.0926176    0.1010946    0.0255189    0.1489964    0.9718195    0.1826661
   0.0903651    0.1012636    0.0260569    0.1299680    0.9839156    0.1225494
   0.0886837    0.1014535    0.0266516    0.2125435    0.9727166   -0.0929933
   0.0577529    0.0834529    0.0391134   -0.6271351   -0.3267387   -0.7070668
   0.0611448    0.0902161    0.0336739   -0.6243044   -0.2958309   -0.7229993
   0.0642821    0.0946299    0.0296369   -0.5800300   -0.1031548   -0.8080373
   0.0688300    0.0969528    0.0273545   -0.3491461   -0.0356745   -0.9363890
   0.0781718    0.0972051   -0.0239880   -0.3073835   -0.0330554    0.9510114
   0.0812822    0.0965955    0.0243270   -0.0048690   -0.0457555   -0.9989408
   0.0836694    0.0960383    0.0238179    0.0465567    0.0908151   -0.9947789
   0.0752967    0.0973939   -0.0249817   -0.3442698    0.0448591    0.9377985
   0.0720946    0.0995847   -0.0261243   -0.1659312    0.1557200    0.9737649
   0.0781718    0.0972051    0.0239880   -0.2121272    0.0623293   -0.9752523
   0.0720946    0.0995847    0.0261243   -0.1692998    0.1551320   -0.9732788
   0.0752967    0.0973939    0.0249817   -0.3526769    0.1152374   -0.9286223
   0.0543446    0.0829113   -0.0486280    0.0792571   -0.6282055   -0.7740001
   0.0509341    0.0826375   -0.0477784   -0.3279391   -0.9177900   -0.2238695
   0.0507850    0.0829695   -0.0460681   -0.5464073   -0.7038616    0.4538920
   0.0539398    0.0862068   -0.0412170   -0.5658014   -0.3456106    0.7486134
   0.0585903    0.0942492   -0.0352027   -0.6563588   -0.2212489    0.7212780
   0.0598053    0.0971658   -0.0325166   -0.7074813   -0.1416659    0.6923879
   0.0724545    0.1077705   -0.0413225    0.8674614    0.4752306    0.1471960
   0.0698844    0.1074913   -0.0382269    0.5959787    0.5932173    0.5412048
   0.0745398    0.1000853   -0.0427739    0.5429422    0.2197093   -0.8105194
   0.0729037    0.1046171   -0.0428646    0.6738625    0.1918991   -0.7135013
   0.0689491    0.1067219   -0.0363641    0.4961266    0.5319253    0.6862316
   0.0717321    0.1041041   -0.0349427    0.2906243    0.6152431    0.7328120
   0.0746746    0.1020293   -0.0340336    0.4030590    0.8323115    0.3805274
   0.0686916    0.0950217   -0.0454490    0.3443898    0.0459703   -0.9377006
   0.0749592    0.1009620   -0.0304857    0.6693665    0.7065604   -0.2296103
   0.0741339    0.1016745   -0.0327020    0.7172208    0.6519207   -0.2461579
   0.0772020    0.0992330   -0.0318208    0.2602714    0.7933093   -0.5503809
   0.0665817    0.0902614   -0.0463971    0.2952093   -0.0558816   -0.9537970
   0.0827729    0.1010160   -0.0317603    0.2624715    0.2896260   -0.9204485
   0.0843804    0.1011363   -0.0306254    0.8223386    0.0963705   -0.5607781
   0.0806738    0.1019582   -0.0315058   -0.0289363    0.3888680   -0.9208389
   0.0781345    0.1025331   -0.0312234   -0.1689758    0.4561024   -0.8737378
   0.0662938    0.0849769   -0.0459358    0.2997938   -0.1038574   -0.9483340
   0.0601849    0.0874007   -0.0477617    0.3057342    0.0009515   -0.9521164
   0.0865137    0.1024279   -0.0294903   -0.1565383    0.8089546   -0.5666465
   0.0882553    0.1030533   -0.0291190    0.0272143    0.8685747   -0.4948105
   0.0854783    0.1028925   -0.0280731    0.3104021    0.7847201   -0.5365305
   0.0838238    0.1044886   -0.0288711    0.6410106    0.5867503   -0.4948025
   0.0572549    0.0849700   -0.0483484    0.2074576   -0.4082222   -0.8889972
   0.0897635    0.1032294   -0.0290089    0.2639181    0.9578487   -0.1134594
   0.0495909    0.0854591   -0.0506343   -0.1200206   -0.8325266   -0.5408277
   0.0883587    0.1032944   -0.0244706   -0.0371425    0.9818297   -0.1860936
   0.0856810    0.1022473   -0.0263125    0.2630341    0.9646837   -0.0140843
   0.0656021    0.0987825   -0.0289871   -0.5878312   -0.1458919    0.7957198
   0.0692693    0.1003705   -0.0263254   -0.2192614   -0.0665611    0.9733931
   0.0674885    0.1009329   -0.0266311   -0.4822549   -0.2122987    0.8499174
   0.0855188    0.0972948    0.0244713    0.1372971   -0.1307102   -0.9818678
   0.0855246    0.1020292    0.0244963    0.2112564    0.6208379   -0.7549378
   0.0878697    0.0998571    0.0227669   -0.4372586    0.0542143   -0.8977002
   0.0878871    0.1032179    0.0233891   -0.2590075    0.6479419   -0.7163005
   0.0901445    0.1024925    0.0231412    0.1075767    0.9562722   -0.2719756
   0.0816287    0.0985940   -0.0235065    0.0169202   -0.3141003    0.9492390
   0.0784486    0.0998596   -0.0236520   -0.3014755   -0.3631940    0.8815910
   0.0824763    0.1009664   -0.0222024    0.2520653   -0.3499488    0.9022189
   0.0838858    0.1027645   -0.0219787    0.3004656    0.4220152    0.8553500
   0.0837138    0.1036842   -0.0245029    0.2844194    0.9586584   -0.0089273
   0.0543446    0.0829113    0.0486280    0.0808235   -0.6219722    0.7788569
   0.0509341    0.0826375    0.0477784   -0.2967405   -0.9089769    0.2927558
   0.0507850    0.0829695    0.0460681   -0.5776576   -0.7296753   -0.3659038
   0.0698844    0.1074913    0.0382269    0.6640309    0.6007325   -0.4451780
   0.0724545    0.1077705    0.0413224    0.9114094    0.4102676    0.0318343
   0.0717321    0.1041041    0.0349426    0.2946273    0.5888558   -0.7526245
   0.0689491    0.1067219    0.0363641    0.4725348    0.5083284   -0.7199396
   0.0746746    0.1020293    0.0340336    0.4442764    0.8050869   -0.3930059
   0.0745398    0.1000853    0.0427739    0.5451285    0.2008758    0.8139311
   0.0729037    0.1046171    0.0428646    0.6857037    0.1746377    0.7066202
   0.0772021    0.0992330    0.0318208    0.2606414    0.7823636    0.5656618
   0.0749592    0.1009620    0.0304856    0.7247113    0.6648215    0.1811243
   0.0741339    0.1016745    0.0327020    0.8004200    0.5502249    0.2378665
   0.0686916    0.0950217    0.0454490    0.3443383    0.0468983    0.9376736
   0.0843804    0.1011363    0.0306254    0.7804802    0.1256255    0.6124287
   0.0827729    0.1010160    0.0317603    0.2493766    0.2326633    0.9400421
   0.0806738    0.1019582    0.0315058   -0.0367440    0.3276915    0.9440700
   0.0781345    0.1025331    0.0312234   -0.1470101    0.4068086    0.9016068
   0.0665817    0.0902614    0.0463971    0.3190138   -0.0388535    0.9469533
   0.0882553    0.1030533    0.0291190   -0.0225337    0.9388526    0.3435811
   0.0865137    0.1024279    0.0294903   -0.1834170    0.8441909    0.5036863
   0.0854783    0.1028925    0.0280731    0.3104021    0.7847201    0.5365305
   0.0838238    0.1044886    0.0288711    0.6360632    0.6145048    0.4666984
   0.0662938    0.0849769    0.0459358    0.2722754   -0.1720258    0.9467171
   0.0601849    0.0874007    0.0477617    0.2910171   -0.0448068    0.9556680
   0.0897635    0.1032294    0.0290089    0.2439503    0.9618164    0.1240865
   0.0572549    0.0849700    0.0483484    0.2490078   -0.3374065    0.9078282
   0.0495909    0.0854591    0.0506343    0.0636872   -0.6046568    0.7939358
   0.0539398    0.0862068    0.0412170   -0.6157180   -0.3388573   -0.7113839
   0.0883587    0.1032944    0.0244705   -0.0236152    0.9700050    0.2419350
   0.0856810    0.1022473    0.0263125    0.3453828    0.9311799   -0.1166821
   0.0585903    0.0942492    0.0352027   -0.6561692   -0.2416450   -0.7148774
   0.0598053    0.0971658    0.0325166   -0.6451212    0.0092397   -0.7640244
   0.0656021    0.0987825    0.0289871   -0.4968573   -0.0527700   -0.8662264
   0.0674885    0.1009329    0.0266311   -0.4244218   -0.1938261   -0.8844759
   0.0692693    0.1003705    0.0263254   -0.1436993   -0.0830616   -0.9861294
   0.0758816    0.0995794   -0.0252149   -0.4841834   -0.0957624    0.8697103
   0.0784486    0.0998596    0.0236520   -0.3016136   -0.2968735   -0.9060328
   0.0816287    0.0985940    0.0235065   -0.0093752   -0.4253270   -0.9049912
   0.0699257    0.1012774   -0.0263543   -0.0208998   -0.1220453    0.9923045
   0.0738660    0.1015013   -0.0272511   -0.2519366   -0.1105942    0.9614036
   0.0758816    0.0995794    0.0252149   -0.4901478   -0.0431618   -0.8705700
   0.0699257    0.1012774    0.0263542   -0.0240169   -0.0869296   -0.9959249
   0.0738660    0.1015013    0.0272511   -0.2519267   -0.1105958   -0.9614060
   0.0459923    0.0852876   -0.0494446   -0.5038918   -0.8637666   -0.0005656
   0.0460251    0.0858293   -0.0476572   -0.5990921   -0.6047758    0.5247237
   0.0503476    0.0896860   -0.0425908   -0.4773262   -0.2998441    0.8259862
   0.0555890    0.0956503   -0.0383575   -0.5734947   -0.1728830    0.8007592
   0.0568752    0.0991600   -0.0355268   -0.7294949   -0.1116599    0.6748106
   0.0605689    0.1003135   -0.0310369   -0.6240241    0.0083368    0.7813606
   0.0698735    0.1140059   -0.0415775    0.6340491    0.3724900    0.6776673
   0.0660095    0.1143657   -0.0396268    0.5326574    0.3664064    0.7629040
   0.0719084    0.1093780   -0.0429627    0.8124510    0.1990085   -0.5480136
   0.0709750    0.1141629   -0.0433119    0.9128121    0.1946787   -0.3589905
   0.0667827    0.1096443   -0.0360248    0.4937504    0.3564113    0.7932096
   0.0657603    0.1126237   -0.0381176    0.5299918    0.4841796    0.6961888
   0.0656824    0.0987209   -0.0467813    0.3507614    0.0291197   -0.9360120
   0.0613870    0.1031451   -0.0480217    0.4115421    0.0086290   -0.9113499
   0.0675918    0.1058440   -0.0352260    0.3493236    0.8554024    0.3824393
   0.0658345    0.1070163   -0.0350003    0.3150406    0.7885827    0.5280973
   0.0712919    0.1036999   -0.0349149    0.4334178    0.8459955    0.3105490
   0.0610471    0.0934282   -0.0478196    0.2780562   -0.0481085   -0.9593593
   0.0755507    0.1034158   -0.0301496    0.4124205    0.3754287   -0.8300377
   0.0748534    0.1048482   -0.0318246    0.7866139    0.2268447   -0.5742648
   0.0716227    0.1062987   -0.0334973    0.4803661    0.4626814   -0.7451002
   0.0562696    0.0904061   -0.0490762    0.2787124   -0.0287526   -0.9599441
   0.0825761    0.1039186   -0.0300627    0.3129821    0.7321338   -0.6049978
   0.0812008    0.1039709   -0.0299216    0.2549856    0.7851878   -0.5643248
   0.0787978    0.1058916   -0.0288087   -0.0689953    0.8901766   -0.4503612
   0.0757640    0.1047271   -0.0285555    0.5610939    0.8275313   -0.0191197
   0.0525307    0.0866374   -0.0506178    0.0691240   -0.4713824   -0.8792158
   0.0483322    0.0894236   -0.0520498    0.0063682   -0.2693664   -0.9630167
   0.0833076    0.1047201   -0.0269981    0.3422285    0.9393078    0.0240955
   0.0820936    0.1047001   -0.0276495    0.1433457    0.9726198    0.1829284
   0.0445392    0.0879283   -0.0519562   -0.4554396   -0.8366891   -0.3041810
   0.0417366    0.0893413   -0.0505918   -0.7512208   -0.6576206    0.0565899
   0.0824703    0.1031234   -0.0256945   -0.0960453    0.9948095   -0.0336056
   0.0655730    0.1015743   -0.0282217   -0.6706270   -0.1229418    0.7315359
   0.0678447    0.1047791   -0.0249623   -0.5009875   -0.1458008    0.8530848
   0.0707239    0.1046004   -0.0239685    0.0685001   -0.3814645    0.9218419
   0.0824763    0.1009664    0.0222024    0.2515095   -0.3968962   -0.8827324
   0.0838858    0.1027645    0.0219787    0.3004656    0.4220152   -0.8553500
   0.0837138    0.1036842    0.0245029    0.4100112    0.8960562   -0.1702176
   0.0789503    0.1013236   -0.0223191   -0.1938584   -0.1617831    0.9675976
   0.0805524    0.1031420   -0.0229168    0.1184321    0.8066744    0.5790080
   0.0803160    0.1029601   -0.0241929    0.3872341    0.9208309   -0.0460461
   0.0459923    0.0852876    0.0494446   -0.4285933   -0.8576900    0.2840344
   0.0460251    0.0858293    0.0476572   -0.6394465   -0.6085897   -0.4698156
   0.0503476    0.0896860    0.0425908   -0.5479057   -0.3157906   -0.7746455
   0.0660095    0.1143657    0.0396268    0.6041559    0.3606291   -0.7105929
   0.0698735    0.1140059    0.0415775    0.8575582    0.2971502   -0.4198757
   0.0657603    0.1126237    0.0381176    0.5114186    0.4831610   -0.7106381
   0.0667827    0.1096443    0.0360248    0.4633475    0.3573229   -0.8109435
   0.0709750    0.1141629    0.0433119    0.8490161    0.1030086    0.5182286
   0.0719085    0.1093780    0.0429627    0.7954881    0.1328859    0.5912192
   0.0712919    0.1036999    0.0349149    0.4597861    0.8373865   -0.2956023
   0.0675918    0.1058440    0.0352260    0.3578668    0.8647675   -0.3522904
   0.0658345    0.1070163    0.0350003    0.3224782    0.7944105   -0.5147036
   0.0656824    0.0987209    0.0467813    0.3576513    0.0370571    0.9331197
   0.0613870    0.1031451    0.0480217    0.3897582   -0.0057579    0.9208992
   0.0755507    0.1034158    0.0301496    0.4575723    0.3033777    0.8358167
   0.0748534    0.1048482    0.0318246    0.8165351    0.1897663    0.5452148
   0.0716227    0.1062987    0.0334973    0.4756445    0.4508176    0.7553316
   0.0610471    0.0934282    0.0478196    0.2975227   -0.0387043    0.9539299
   0.0825761    0.1039186    0.0300627    0.2725342    0.7988178    0.5362976
   0.0812009    0.1039709    0.0299216    0.1944415    0.7382128    0.6459368
   0.0787978    0.1058916    0.0288087   -0.0693395    0.8206622    0.5671910
   0.0757640    0.1047271    0.0285555    0.6025279    0.7975594   -0.0293117
   0.0562696    0.0904061    0.0490762    0.3064951   -0.0133276    0.9517789
   0.0833076    0.1047201    0.0269981    0.4344039    0.8677165   -0.2415809
   0.0820936    0.1047001    0.0276495    0.0774453    0.9438020   -0.3213098
   0.0525307    0.0866374    0.0506178    0.2372447   -0.2273367    0.9444750
   0.0483323    0.0894236    0.0520498    0.1909403   -0.0743990    0.9787781
   0.0445392    0.0879283    0.0519562   -0.1106887   -0.5172123    0.8486692
   0.0417366    0.0893413    0.0505918   -0.7028403   -0.6527475    0.2827301
   0.0555890    0.0956503    0.0383575   -0.6267951   -0.2538855   -0.7366614
