NORM_ASCII
958 1070
   0.0260440   -0.0014190   -0.0391820   -0.9973769   -0.0658791    0.0299868
   0.0339320   -0.0023600   -0.0392260    0.5472784    0.8367991    0.0159244
   0.0315120   -0.0021030   -0.0386440    0.1124357    0.9727614    0.2027154
   0.0290750   -0.0020170   -0.0381630    0.3764460    0.8898991    0.2576199
   0.0276830   -0.0010770   -0.0373480    0.2001475    0.9445458    0.2603348
   0.0263140   -0.0014610   -0.0373400    0.8938878    0.4480661   -0.0141907
   0.0263710   -0.0014190   -0.0373230   -0.4452543   -0.8758722   -0.1860013
   0.0339770   -0.0025660   -0.0385040    0.6769311    0.6853939    0.2683272
   0.0322350   -0.0023540   -0.0376550    0.2246891    0.6548281    0.7216058
   0.0299410   -0.0025520   -0.0377590    0.4167677    0.0265448    0.9086254
   0.0285000   -0.0022620   -0.0367590    0.3988702    0.4316653    0.8090535
   0.0271070   -0.0021030   -0.0361070    0.3051737    0.3477357    0.8865376
   0.0265400   -0.0021820   -0.0362100   -0.8601807   -0.3384292    0.3815165
   0.0339640   -0.0030020   -0.0381120    0.8746410    0.0000299    0.4847711
   0.0328840   -0.0030020   -0.0370840    0.1922876   -0.0471704    0.9802043
   0.0306730   -0.0030020   -0.0381180    0.0096015   -0.1822839    0.9831991
   0.0290240   -0.0030020   -0.0378280    0.5151349    0.2008122    0.8332530
   0.0277300   -0.0030020   -0.0358400    0.2228257    0.2239162    0.9487941
   0.0265130   -0.0030020   -0.0362120   -0.7557834    0.0089813    0.6547601
   0.0337280   -0.0034780   -0.0383590    0.6811614   -0.6726204    0.2891385
   0.0321110   -0.0039150   -0.0369560    0.0083638   -0.6239515    0.7814183
   0.0308930   -0.0034390   -0.0379600   -0.2166933   -0.1717769    0.9610082
   0.0292050   -0.0035310   -0.0374260    0.6328334   -0.1031838    0.7673819
   0.0278820   -0.0041530   -0.0355980    0.3140317   -0.3662993    0.8759046
   0.0265460   -0.0038350   -0.0361770   -0.8211883   -0.2079397    0.5314234
   0.0334130   -0.0037730   -0.0390570    0.5346188   -0.8447580    0.0238034
   0.0311220   -0.0047570   -0.0380580   -0.2891641   -0.9088911    0.3005013
   0.0309850   -0.0039440   -0.0385260   -0.4055273   -0.7902220    0.4594527
   0.0292080   -0.0042430   -0.0380310    0.4848244   -0.8317148    0.2705472
   0.0277270   -0.0053560   -0.0370960    0.1331989   -0.9467774    0.2930369
   0.0263760   -0.0046280   -0.0372980   -0.8527296   -0.4396720    0.2820298
   0.0332540   -0.0037730   -0.0399610    0.5003016   -0.8314017   -0.2418046
   0.0307590   -0.0047570   -0.0401160   -0.5306921   -0.8470639   -0.0291313
   0.0307900   -0.0039440   -0.0396310   -0.6177509   -0.7859691    0.0252272
   0.0289510   -0.0042430   -0.0394870    0.3643714   -0.9013514   -0.2340922
   0.0272410   -0.0053560   -0.0398580    0.0146904   -0.9807381   -0.1947744
   0.0260390   -0.0046280   -0.0392060   -0.8904620   -0.4495174    0.0707921
   0.0331080   -0.0035180   -0.0407910    0.5418035   -0.6009159   -0.5876640
   0.0305150   -0.0040330   -0.0416550   -0.5482939   -0.7164411   -0.4313768
   0.0304990   -0.0035840   -0.0405000   -0.6193817   -0.7223761   -0.3074721
   0.0286730   -0.0038080   -0.0407540    0.3925720   -0.6734368   -0.6263945
   0.0267460   -0.0044430   -0.0420410   -0.0734656   -0.7633576   -0.6417850
   0.0257820   -0.0040330   -0.0408200   -0.9472009   -0.3080994   -0.0887985
   0.0195930   -0.0030020   -0.0510490    0.9544697   -0.1925543   -0.2278384
   0.0183350   -0.0030020   -0.0525860    0.6061768    0.0193869   -0.7950936
   0.0157660   -0.0030020   -0.0534730   -0.5373075   -0.3361099   -0.7735185
   0.0156090   -0.0030020   -0.0521880   -0.4841137   -0.5127804   -0.7090065
   0.0138170   -0.0030020   -0.0527100    0.4301047    0.0820372   -0.8990438
   0.0118000   -0.0030020   -0.0541980   -0.2456226    0.2053831   -0.9473581
   0.0109900   -0.0030020   -0.0528830   -0.9865937    0.0053824   -0.1631068
   0.0116160   -0.0030020   -0.0496420   -0.9882484   -0.0007574    0.1528548
   0.0186930   -0.0025260   -0.0521100    0.5527901    0.6247101   -0.5515075
   0.0161730   -0.0022350   -0.0524110   -0.2839588    0.7553522   -0.5906018
   0.0148390   -0.0024060   -0.0517350   -0.1626664    0.5387302   -0.8266253
   0.0130840   -0.0019840   -0.0525100    0.3057257    0.7957040   -0.5228642
   0.0114940   -0.0018120   -0.0526690   -0.2526542    0.8821526   -0.3974578
   0.0110900   -0.0019840   -0.0521580   -0.9449914    0.3159960   -0.0844850
   0.0191010   -0.0023600   -0.0513490    0.5198901    0.8232558   -0.2279565
   0.0166280   -0.0021030   -0.0510690   -0.0252646    0.9835196   -0.1790275
   0.0141730   -0.0020170   -0.0506880    0.1542959    0.9496652   -0.2726332
   0.0125870   -0.0010770   -0.0509770    0.1977861    0.9682929   -0.1526090
   0.0112970   -0.0014610   -0.0505170   -0.0608092    0.9781636   -0.1987416
   0.0113460   -0.0014190   -0.0505510   -0.9973960   -0.0655982    0.0299682
   0.0192340   -0.0023600   -0.0505970    0.5472230    0.8368370    0.0158382
   0.0168140   -0.0021030   -0.0500150    0.1124449    0.9728211    0.2024235
   0.0143770   -0.0020170   -0.0495330    0.3764447    0.8899576    0.2574197
   0.0129850   -0.0010770   -0.0487180    0.2001716    0.9445174    0.2604195
   0.0116160   -0.0014610   -0.0487100    0.8951299    0.4453768   -0.0195422
   0.0116740   -0.0014190   -0.0486940   -0.4488758   -0.8739374   -0.1863975
   0.0192790   -0.0025660   -0.0498750    0.6770133    0.6853413    0.2682543
   0.0175370   -0.0023540   -0.0490250    0.2250547    0.6549684    0.7213645
   0.0152430   -0.0025520   -0.0491280    0.4169394    0.0267900    0.9085394
   0.0138020   -0.0022620   -0.0481300    0.3988273    0.4317623    0.8090229
   0.0124090   -0.0021030   -0.0474770    0.3007540    0.3453848    0.8889636
   0.0118430   -0.0021820   -0.0475800   -0.8614852   -0.3399503    0.3771963
   0.0192660   -0.0030020   -0.0494820    0.8746515    0.0008896    0.4847514
   0.0181860   -0.0030020   -0.0484550    0.1926167   -0.0476191    0.9801180
   0.0159750   -0.0030020   -0.0494880    0.0099484   -0.1827959    0.9831005
   0.0143270   -0.0030020   -0.0491970    0.5151150    0.2008766    0.8332497
   0.0130320   -0.0030020   -0.0472100    0.2227819    0.2235960    0.9488799
   0.0118150   -0.0030020   -0.0475820   -0.7558435    0.0090356    0.6546899
   0.0190310   -0.0034780   -0.0497290    0.6816680   -0.6720419    0.2892895
   0.0174140   -0.0039150   -0.0483260    0.0083700   -0.6235917    0.7817054
   0.0161950   -0.0034390   -0.0493310   -0.2162384   -0.1722634    0.9610235
   0.0145070   -0.0035310   -0.0487950    0.6329557   -0.1034104    0.7672506
   0.0131840   -0.0041530   -0.0469690    0.3137738   -0.3666357    0.8758563
   0.0118480   -0.0038350   -0.0475480   -0.8211255   -0.2083084    0.5313760
   0.0187160   -0.0037730   -0.0504280    0.5346431   -0.8447513    0.0234956
   0.0164240   -0.0047570   -0.0494280   -0.2893482   -0.9087455    0.3007644
   0.0162870   -0.0039440   -0.0498950   -0.4053903   -0.7902308    0.4595584
   0.0145100   -0.0042430   -0.0494010    0.4849937   -0.8316723    0.2703744
   0.0130300   -0.0053560   -0.0484670    0.1333206   -0.9467554    0.2930525
   0.0116780   -0.0046280   -0.0486690   -0.8526969   -0.4397603    0.2819908
   0.0185560   -0.0037730   -0.0513310    0.5001705   -0.8314092   -0.2420500
   0.0160610   -0.0047570   -0.0514870   -0.5308476   -0.8469416   -0.0298454
   0.0160920   -0.0039440   -0.0510000   -0.6177878   -0.7859580    0.0246641
   0.0142530   -0.0042430   -0.0508580    0.3644592   -0.9013076   -0.2341242
   0.0125430   -0.0053560   -0.0512280    0.0148350   -0.9807161   -0.1948738
   0.0113410   -0.0046280   -0.0505780   -0.8903880   -0.4496774    0.0707065
   0.0184100   -0.0035180   -0.0521610    0.5414953   -0.6013333   -0.5875211
   0.0158170   -0.0040330   -0.0530250   -0.5483187   -0.7163104   -0.4315623
   0.0158020   -0.0035840   -0.0518710   -0.6195529   -0.7220139   -0.3079776
   0.0139750   -0.0038080   -0.0521250    0.3926062   -0.6733111   -0.6265082
   0.0120480   -0.0044430   -0.0534120   -0.0734213   -0.7634741   -0.6416515
   0.0110840   -0.0040330   -0.0521910   -0.9471576   -0.3082310   -0.0888038
   0.0614080   -0.0030020   -0.0109000    0.9500511   -0.2118690   -0.2291602
   0.0606350   -0.0030020   -0.0143500    0.7941110   -0.0909632   -0.6009271
   0.0590300   -0.0030020   -0.0150360    0.0159133   -0.0562741   -0.9982885
   0.0558010   -0.0030020   -0.0136920   -0.3135538   -0.1365785   -0.9396969
   0.0516570   -0.0030020   -0.0128650   -0.1062072   -0.1323033   -0.9855029
   0.0476360   -0.0030020   -0.0127370    0.1195006   -0.0550924   -0.9913044
   0.0448760   -0.0030020   -0.0134140   -0.3399877    0.0024700   -0.9404266
   0.0435410   -0.0030020   -0.0116280   -0.9779603    0.0288684   -0.2067853
   0.0442850   -0.0030020   -0.0078810   -0.9838493    0.0476242    0.1725470
   0.0610800   -0.0013910   -0.0134690    0.8060426    0.2189036   -0.5498878
   0.0595840   -0.0009100   -0.0139900    0.0839686    0.5671994   -0.8192888
   0.0559830   -0.0009100   -0.0133550   -0.2157148    0.4927743   -0.8429950
   0.0520290   -0.0009340   -0.0126190   -0.0948343    0.4988187   -0.8615024
   0.0479220   -0.0006930   -0.0122860    0.0784686    0.5721105   -0.8164143
   0.0456480   -0.0004290   -0.0123170   -0.2826331    0.6590411   -0.6969816
   0.0438950   -0.0010310   -0.0110280   -0.9147566    0.3742756   -0.1521121
   0.0616550   -0.0006680   -0.0118430    0.8713129    0.3778550   -0.3131125
   0.0603230    0.0001110   -0.0119070    0.2606758    0.9031863   -0.3410317
   0.0564420    0.0007330   -0.0114620   -0.0218326    0.9366080   -0.3496983
   0.0526810    0.0007330   -0.0107990   -0.0156333    0.9385579   -0.3447676
   0.0485000    0.0010440   -0.0101830    0.0343583    0.9516674   -0.3052025
   0.0466640    0.0009660   -0.0098280   -0.2026064    0.9538769   -0.2215165
   0.0444700    0.0002660   -0.0091710   -0.8136053    0.5811436    0.0178479
   0.0619630   -0.0006680   -0.0100990    0.9308360    0.3651556   -0.0143428
   0.0607320    0.0001110   -0.0095840    0.4518332    0.8072912    0.3796414
   0.0569340    0.0007330   -0.0086740    0.1877265    0.7799183    0.5970647
   0.0531730    0.0007330   -0.0080110    0.1387776    0.8216040    0.5529083
   0.0490320    0.0010440   -0.0071600    0.0900528    0.8982453    0.4301697
   0.0471870    0.0009660   -0.0068650   -0.1107877    0.9075198    0.4051345
   0.0449000    0.0002660   -0.0067310   -0.7419400    0.5733470    0.3475605
   0.0621370   -0.0016790   -0.0088720    0.9617781    0.1810080    0.2054727
   0.0608640   -0.0012220   -0.0079040    0.4978235    0.0682437    0.8645893
   0.0576690   -0.0017760   -0.0082410    0.1847647   -0.3506015    0.9181180
   0.0530690   -0.0017760   -0.0074300    0.2223552   -0.1699296    0.9600427
   0.0491280   -0.0012710   -0.0059130    0.2907133    0.2219608    0.9307090
   0.0471620   -0.0008620   -0.0048990    0.0586048    0.3847247    0.9211690
   0.0449010   -0.0013670   -0.0053240   -0.7190211    0.2812971    0.6355160
   0.0621420   -0.0030020   -0.0086070    0.9502495   -0.1190741    0.2878320
   0.0607720   -0.0030020   -0.0074930    0.3693644    0.0199875    0.9290696
   0.0580170   -0.0030020   -0.0100120   -0.0267645    0.0112176    0.9995788
   0.0525770   -0.0030020   -0.0090520    0.3254997   -0.0700748    0.9429419
   0.0488570   -0.0030020   -0.0067490    0.5157029   -0.0591353    0.8547243
   0.0468350   -0.0030020   -0.0046480    0.1883760   -0.0150186    0.9819821
   0.0446350   -0.0030020   -0.0054230   -0.7465292    0.0233905    0.6649414
   0.0615970   -0.0043960   -0.0086600    0.8939297   -0.4124744    0.1753699
   0.0602840   -0.0049980   -0.0074480    0.2310372    0.0613413    0.9710093
   0.0572220   -0.0039160   -0.0086720   -0.1332144    0.4537545    0.8811134
   0.0525690   -0.0038680   -0.0079300    0.3533582    0.0825328    0.9318403
   0.0488210   -0.0044930   -0.0062510    0.6069213   -0.2639720    0.7496435
   0.0466280   -0.0052380   -0.0046490    0.1649881   -0.3988151    0.9020673
   0.0447280   -0.0045890   -0.0053720   -0.8061231   -0.1875638    0.5612356
   0.0608570   -0.0055700   -0.0098160    0.8454761   -0.5323914   -0.0415885
   0.0594990   -0.0068140   -0.0090960    0.2395263   -0.8480114    0.4727620
   0.0561460   -0.0057260   -0.0089240   -0.1848927   -0.7208162    0.6680110
   0.0522950   -0.0055700   -0.0083060    0.2132547   -0.8355400    0.5063549
   0.0485010   -0.0062700   -0.0073660    0.4256883   -0.8478069    0.3162482
   0.0460860   -0.0072820   -0.0065510   -0.0367721   -0.9190259    0.3924783
   0.0445700   -0.0061150   -0.0067340   -0.8605386   -0.3983177    0.3175158
   0.0605190   -0.0055700   -0.0117320    0.8229924   -0.5172944   -0.2347126
   0.0589970   -0.0068140   -0.0119430    0.1572630   -0.9483849   -0.2753805
   0.0557880   -0.0057260   -0.0109580   -0.2250414   -0.9536394   -0.1998207
   0.0519570   -0.0055700   -0.0102230    0.0298641   -0.9680035   -0.2491535
   0.0480700   -0.0062700   -0.0098060    0.2442525   -0.9229666   -0.2974448
   0.0455230   -0.0072820   -0.0097470   -0.1956034   -0.9534752   -0.2293999
   0.0441600   -0.0061150   -0.0090570   -0.9076304   -0.4157434    0.0580045
   0.0604990   -0.0046860   -0.0134840    0.8085530   -0.3882546   -0.4421543
   0.0588840   -0.0053100   -0.0142190    0.0776928   -0.6565301   -0.7502880
   0.0557110   -0.0047810   -0.0127980   -0.3019427   -0.6810246   -0.6671102
   0.0517300   -0.0047100   -0.0119780   -0.0524299   -0.6888063   -0.7230470
   0.0477490   -0.0050700   -0.0118640    0.1729595   -0.6255703   -0.7607541
   0.0450610   -0.0056710   -0.0123700   -0.2900635   -0.6458571   -0.7062095
   0.0437490   -0.0049260   -0.0109240   -0.9518907   -0.2817307   -0.1205481
   0.0409290   -0.0030020   -0.0243140    0.9500917   -0.2116341   -0.2292089
   0.0403020   -0.0030020   -0.0271080    0.7940984   -0.0908462   -0.6009615
   0.0390010   -0.0030020   -0.0276640    0.0158500   -0.0563055   -0.9982878
   0.0363860   -0.0030020   -0.0265740   -0.3137096   -0.1366131   -0.9396399
   0.0330300   -0.0030020   -0.0259040   -0.1061423   -0.1324180   -0.9854944
   0.0297730   -0.0030020   -0.0258010    0.1195618   -0.0551968   -0.9912912
   0.0275390   -0.0030020   -0.0263490   -0.3398293    0.0024932   -0.9404838
   0.0264570   -0.0030020   -0.0249020   -0.9778990    0.0289747   -0.2070604
   0.0270590   -0.0030020   -0.0218680   -0.9838448    0.0476187    0.1725744
   0.0406620   -0.0016970   -0.0263950    0.8059954    0.2191387   -0.5498632
   0.0394520   -0.0013070   -0.0268160    0.0839600    0.5672257   -0.8192715
   0.0365350   -0.0013070   -0.0263020   -0.2158930    0.4926451   -0.8430249
   0.0333330   -0.0013270   -0.0257060   -0.0948224    0.4985803   -0.8616417
   0.0300050   -0.0011320   -0.0254370    0.0784697    0.5719298   -0.8165408
   0.0281620   -0.0009180   -0.0254610   -0.2827995    0.6586704   -0.6972644
   0.0267430   -0.0014050   -0.0244170   -0.9149023    0.3738059   -0.1523910
   0.0411280   -0.0011110   -0.0250770    0.8711942    0.3782298   -0.3129903
   0.0400500   -0.0004810   -0.0251290    0.2607014    0.9032182   -0.3409276
   0.0369050    0.0000230   -0.0247690   -0.0218439    0.9366132   -0.3496835
   0.0338600    0.0000230   -0.0242320   -0.0155608    0.9385595   -0.3447666
   0.0304730    0.0002760   -0.0237320    0.0344093    0.9516364   -0.3052934
   0.0289860    0.0002130   -0.0234450   -0.2026969    0.9538095   -0.2217236
   0.0272080   -0.0003540   -0.0229140   -0.8137326    0.5809672    0.0177854
   0.0413770   -0.0011110   -0.0236660    0.9308467    0.3651277   -0.0143588
   0.0403820   -0.0004810   -0.0232460    0.4519970    0.8071344    0.3797800
   0.0373040    0.0000230   -0.0225110    0.1874930    0.7799610    0.5970823
   0.0342580    0.0000230   -0.0219740    0.1388687    0.8217466    0.5526736
   0.0309040    0.0002760   -0.0212850    0.0901907    0.8983344    0.4299545
   0.0294090    0.0002130   -0.0210460   -0.1106682    0.9075386    0.4051250
   0.0275570   -0.0003540   -0.0209370   -0.7418950    0.5733180    0.3477042
   0.0415190   -0.0019310   -0.0226710    0.9618212    0.1808451    0.2054144
   0.0404870   -0.0015610   -0.0218860    0.4978447    0.0679625    0.8645992
   0.0379000   -0.0020090   -0.0221600    0.1844238   -0.3504895    0.9182293
   0.0341730   -0.0020090   -0.0215030    0.2225009   -0.1695831    0.9600703
   0.0309820   -0.0015990   -0.0202730    0.2906471    0.2223619    0.9306339
   0.0293890   -0.0012680   -0.0194530    0.0584941    0.3848420    0.9211271
   0.0275580   -0.0016770   -0.0197970   -0.7189734    0.2811816    0.6356211
   0.0415230   -0.0030020   -0.0224560    0.9502254   -0.1190889    0.2879053
   0.0404130   -0.0030020   -0.0215530    0.3693416    0.0200809    0.9290767
   0.0381820   -0.0030020   -0.0235940   -0.0269735    0.0112831    0.9995725
   0.0337740   -0.0030020   -0.0228160    0.3256827   -0.0700586    0.9428799
   0.0307620   -0.0030020   -0.0209500    0.5156126   -0.0589769    0.8547897
   0.0291240   -0.0030020   -0.0192490    0.1880700   -0.0145793    0.9820474
   0.0273430   -0.0030020   -0.0198770   -0.7464945    0.0238684    0.6649634
   0.0410810   -0.0041320   -0.0224990    0.8939148   -0.4124209    0.1755714
   0.0400180   -0.0046190   -0.0215170    0.2310835    0.0614383    0.9709922
   0.0375380   -0.0037420   -0.0225090   -0.1332498    0.4539444    0.8810102
   0.0337680   -0.0037030   -0.0219080    0.3535768    0.0824011    0.9317690
   0.0307330   -0.0042100   -0.0205470    0.6069858   -0.2641236    0.7495378
   0.0289570   -0.0048130   -0.0192500    0.1649301   -0.3985375    0.9022006
   0.0274170   -0.0042870   -0.0198350   -0.8062453   -0.1871849    0.5611865
   0.0404830   -0.0050820   -0.0234350    0.8455683   -0.5322511   -0.0415095
   0.0393820   -0.0060910   -0.0228530    0.2394447   -0.8479646    0.4728871
   0.0366660   -0.0052080   -0.0227130   -0.1851017   -0.7205833    0.6682044
   0.0335470   -0.0050820   -0.0222120    0.2133850   -0.8356019    0.5061979
   0.0304740   -0.0056490   -0.0214520    0.4257743   -0.8478355    0.3160558
   0.0285190   -0.0064690   -0.0207910   -0.0365808   -0.9190462    0.3924486
   0.0272900   -0.0055230   -0.0209380   -0.8605138   -0.3985496    0.3172921
   0.0402090   -0.0050820   -0.0249870    0.8230178   -0.5171509   -0.2349396
   0.0389750   -0.0060910   -0.0251580    0.1571504   -0.9483683   -0.2755020
   0.0363750   -0.0052080   -0.0243610   -0.2252765   -0.9535895   -0.1997937
   0.0332740   -0.0050820   -0.0237640    0.0299104   -0.9679963   -0.2491757
   0.0301250   -0.0056490   -0.0234280    0.2443256   -0.9229127   -0.2975520
   0.0280620   -0.0064690   -0.0233790   -0.1955788   -0.9534861   -0.2293755
   0.0269580   -0.0055230   -0.0228210   -0.9075568   -0.4158802    0.0581753
   0.0401920   -0.0043650   -0.0264060    0.8085687   -0.3880962   -0.4422647
   0.0388840   -0.0048720   -0.0270020    0.0777316   -0.6564354   -0.7503668
   0.0363140   -0.0044430   -0.0258500   -0.3021094   -0.6808575   -0.6672054
   0.0330890   -0.0043850   -0.0251870   -0.0524022   -0.6886507   -0.7231972
   0.0298640   -0.0046770   -0.0250940    0.1729849   -0.6254830   -0.7608201
   0.0276880   -0.0051640   -0.0255040   -0.2900639   -0.6457249   -0.7063301
   0.0266240   -0.0045600   -0.0243320   -0.9519713   -0.2814859   -0.1204832
   0.0241180   -0.0030020   -0.0380200    0.9554452   -0.1919115   -0.2242640
   0.0235660   -0.0030020   -0.0405370    0.8106010   -0.0798237   -0.5801329
   0.0225000   -0.0030020   -0.0410560    0.0280478   -0.0557590   -0.9980502
   0.0203920   -0.0030020   -0.0401200   -0.3283783   -0.1362885   -0.9346620
   0.0176740   -0.0030020   -0.0395690   -0.0991192   -0.1323337   -0.9862369
   0.0150300   -0.0030020   -0.0395260    0.1487127   -0.0546833   -0.9873673
   0.0132050   -0.0030020   -0.0400520   -0.3464726    0.0028295   -0.9380558
   0.0123480   -0.0030020   -0.0387710   -0.9826287    0.0262473   -0.1837167
   0.0128840   -0.0030020   -0.0360390   -0.9840341    0.0431506    0.1726702
   0.0238700   -0.0018280   -0.0398910    0.8195444    0.2155827   -0.5309153
   0.0228790   -0.0014770   -0.0402890    0.1030880    0.5640109   -0.8193073
   0.0205170   -0.0014770   -0.0398720   -0.2227532    0.4928612   -0.8411117
   0.0179230   -0.0014950   -0.0393860   -0.0889429    0.4984851   -0.8623234
   0.0152230   -0.0013190   -0.0391950    0.1012027    0.5694891   -0.8157452
   0.0137250   -0.0011260   -0.0392460   -0.2917706    0.6597277   -0.6925528
   0.0125880   -0.0015650   -0.0383300   -0.9252782    0.3540118   -0.1361466
   0.0242690   -0.0013010   -0.0387020    0.8792189    0.3661787   -0.3047743
   0.0233920   -0.0007330   -0.0387650    0.2885333    0.8936135   -0.3438073
   0.0208420   -0.0002790   -0.0384910   -0.0177639    0.9362711   -0.3508290
   0.0183740   -0.0002790   -0.0380560   -0.0108376    0.9382888   -0.3456828
   0.0156290   -0.0000520   -0.0376590    0.0438052    0.9508931   -0.3064039
   0.0144250   -0.0001090   -0.0374250   -0.2175163    0.9516099   -0.2170836
   0.0129900   -0.0006200   -0.0369750   -0.8275525    0.5608920    0.0235997
   0.0244930   -0.0013010   -0.0374310    0.9355406    0.3526010   -0.0208893
   0.0236900   -0.0007330   -0.0370710    0.4833036    0.7936371    0.3695371
   0.0212000   -0.0002790   -0.0364570    0.1964509    0.7789553    0.5955130
   0.0187320   -0.0002790   -0.0360220    0.1431708    0.8213812    0.5521186
   0.0160170   -0.0000520   -0.0354560    0.0914154    0.8982399    0.4298933
   0.0148060   -0.0001090   -0.0352650   -0.1296748    0.9042695    0.4067937
   0.0133030   -0.0006200   -0.0351960   -0.7551493    0.5565998    0.3463325
   0.0246230   -0.0020380   -0.0365380    0.9656551    0.1759651    0.1911712
   0.0237960   -0.0017050   -0.0358490    0.5244128    0.0608086    0.8492900
   0.0216900   -0.0021080   -0.0361340    0.1869785   -0.3507488    0.9176134
   0.0186710   -0.0021080   -0.0356020    0.2279555   -0.1697928    0.9587527
   0.0160960   -0.0017400   -0.0345480    0.3030287    0.2225083    0.9266411
   0.0148140   -0.0014420   -0.0338360    0.0474839    0.3858692    0.9213307
   0.0133210   -0.0018100   -0.0341720   -0.7314812    0.2673099    0.6272804
   0.0246300   -0.0030020   -0.0363440    0.9568366   -0.1058989    0.2706457
   0.0237410   -0.0030020   -0.0355510    0.3867436    0.0144730    0.9220737
   0.0218960   -0.0030020   -0.0374160   -0.0452403    0.0037073    0.9989693
   0.0183270   -0.0030020   -0.0367860    0.3405579   -0.0710068    0.9375384
   0.0159070   -0.0030020   -0.0351590    0.5445660   -0.0589649    0.8366427
   0.0146020   -0.0030020   -0.0336570    0.1879934   -0.0145002    0.9820633
   0.0131460   -0.0030020   -0.0342480   -0.7591728    0.0202048    0.6505755
   0.0242700   -0.0040180   -0.0363890    0.9095727   -0.3825406    0.1622967
   0.0234220   -0.0044570   -0.0355250    0.2340589    0.0667210    0.9699303
   0.0213900   -0.0036680   -0.0364520   -0.1590401    0.4494052    0.8790570
   0.0183350   -0.0036330   -0.0359720    0.3709117    0.0834537    0.9249108
   0.0158900   -0.0040880   -0.0347970    0.6409430   -0.2575223    0.7231005
   0.0144670   -0.0046330   -0.0336600    0.1649658   -0.3987184    0.9021142
   0.0132060   -0.0041580   -0.0342100   -0.8193177   -0.1756674    0.5457651
   0.0237690   -0.0048740   -0.0372380    0.8651974   -0.4991068   -0.0482273
   0.0228830   -0.0057820   -0.0367320    0.2471264   -0.8474849    0.4697849
   0.0206790   -0.0049880   -0.0366490   -0.2123523   -0.7170935    0.6638398
   0.0181510   -0.0048740   -0.0362480    0.2256426   -0.8343005    0.5030190
   0.0156650   -0.0053850   -0.0356120    0.4574521   -0.8358904    0.3033558
   0.0140860   -0.0061220   -0.0350510   -0.0418281   -0.9188958    0.3922765
   0.0130850   -0.0052710   -0.0352010   -0.8724813   -0.3761120    0.3119553
   0.0235220   -0.0048740   -0.0386360    0.8433322   -0.4838307   -0.2338774
   0.0225170   -0.0057820   -0.0388080    0.1667654   -0.9463941   -0.2766360
   0.0204180   -0.0049880   -0.0381320   -0.2439191   -0.9498819   -0.1955193
   0.0179050   -0.0048740   -0.0376450    0.0376674   -0.9673816   -0.2505075
   0.0153510   -0.0053850   -0.0373920    0.2728267   -0.9140666   -0.3000798
   0.0136760   -0.0061220   -0.0373800   -0.2023158   -0.9524213   -0.2279516
   0.0127860   -0.0052710   -0.0368950   -0.9177312   -0.3918518    0.0649732
   0.0234870   -0.0042290   -0.0399100    0.8276285   -0.3612375   -0.4295794
   0.0224150   -0.0046840   -0.0404630    0.0878712   -0.6545770   -0.7508712
   0.0203440   -0.0042990   -0.0394690   -0.3199204   -0.6786513   -0.6611228
   0.0177340   -0.0042470   -0.0389230   -0.0444203   -0.6882911   -0.7240733
   0.0151140   -0.0045100   -0.0388900    0.2030603   -0.6190162   -0.7586735
   0.0133390   -0.0049470   -0.0392920   -0.2963479   -0.6450105   -0.7043716
   0.0124930   -0.0044040   -0.0382570   -0.9589615   -0.2640825   -0.1032143
   0.0099060   -0.0030020   -0.0494760    0.9610883   -0.1734704   -0.2149819
   0.0093740   -0.0030020   -0.0519970    0.8422425   -0.0672061   -0.5348934
   0.0084880   -0.0030020   -0.0525470    0.0505610   -0.0584040   -0.9970118
   0.0067980   -0.0030020   -0.0516850   -0.3612742   -0.1464212   -0.9208918
   0.0045990   -0.0030020   -0.0512250   -0.0822256   -0.1434405   -0.9862372
   0.0024430   -0.0030020   -0.0512690    0.2133176   -0.0586919   -0.9752184
   0.0009370   -0.0030020   -0.0518520   -0.3574057    0.0033445   -0.9339432
   0.0002810   -0.0030020   -0.0506060   -0.9904591    0.0238401   -0.1357292
   0.0008060   -0.0030020   -0.0478710   -0.9841923    0.0385072    0.1728663
   0.0096430   -0.0019450   -0.0513440    0.8448495    0.2181632   -0.4885020
   0.0088220   -0.0016290   -0.0517710    0.1352397    0.5908192   -0.7953885
   0.0069080   -0.0016290   -0.0514340   -0.2352573    0.5234846   -0.8189126
   0.0048080   -0.0016450   -0.0510350   -0.0734841    0.5285241   -0.8457319
   0.0026120   -0.0014880   -0.0509340    0.1483989    0.5940099   -0.7906516
   0.0013890   -0.0013140   -0.0510340   -0.2976223    0.6932035   -0.6564220
   0.0004900   -0.0017080   -0.0501590   -0.9360949    0.3379118   -0.0976827
   0.0100070   -0.0014710   -0.0501500    0.8901583    0.3555364   -0.2849775
   0.0092890   -0.0009600   -0.0502410    0.3213905    0.8894452   -0.3249543
   0.0072190   -0.0005510   -0.0500500   -0.0093693    0.9447614   -0.3276249
   0.0052190   -0.0005510   -0.0496970   -0.0007298    0.9465612   -0.3225234
   0.0029930   -0.0003480   -0.0493930    0.0603885    0.9564730   -0.2855042
   0.0020190   -0.0003980   -0.0491990   -0.2287829    0.9544314   -0.1916225
   0.0008610   -0.0008570   -0.0487980   -0.8393587    0.5421418    0.0394868
   0.0102310   -0.0014710   -0.0488780    0.9387870    0.3423053   -0.0388087
   0.0095880   -0.0009600   -0.0485460    0.5172877    0.7852810    0.3402164
   0.0075770   -0.0005510   -0.0480180    0.2069572    0.7856258    0.5830617
   0.0055780   -0.0005510   -0.0476660    0.1466469    0.8310968    0.5364445
   0.0033820   -0.0003480   -0.0471900    0.0908797    0.9085767    0.4077123
   0.0024000   -0.0003980   -0.0470380   -0.1557920    0.9095575    0.3852714
   0.0011750   -0.0008570   -0.0470190   -0.7695955    0.5448083    0.3330265
   0.0103670   -0.0021340   -0.0479860    0.9722332    0.1752964    0.1550280
   0.0097150   -0.0018340   -0.0473270    0.5804839    0.0612523    0.8119646
   0.0079870   -0.0021970   -0.0476800    0.1926465   -0.3624773    0.9118649
   0.0055410   -0.0021970   -0.0472490    0.2411506   -0.1753755    0.9545103
   0.0034760   -0.0018670   -0.0462840    0.3337320    0.2390938    0.9118427
   0.0024530   -0.0015980   -0.0456180    0.0249387    0.4138010    0.9100257
   0.0012230   -0.0019300   -0.0460010   -0.7564823    0.2605242    0.5998847
   0.0103790   -0.0030020   -0.0477920    0.9680648   -0.0933335    0.2326788
   0.0096790   -0.0030020   -0.0470340    0.4418545   -0.0013073    0.8970858
   0.0081130   -0.0030020   -0.0489480   -0.0850083   -0.0141640    0.9962796
   0.0052220   -0.0030020   -0.0484380    0.3791616   -0.0804295    0.9218284
   0.0033020   -0.0030020   -0.0468990    0.6063670   -0.0649201    0.7925304
   0.0022860   -0.0030020   -0.0454470    0.1861375   -0.0156011    0.9823998
   0.0010780   -0.0030020   -0.0460820   -0.7860013    0.0161296    0.6180144
   0.0100830   -0.0039170   -0.0478500    0.9252701   -0.3560155    0.1308749
   0.0094180   -0.0043110   -0.0470180    0.2427467    0.0725862    0.9673703
   0.0077320   -0.0036020   -0.0480060   -0.2100670    0.4593111    0.8630789
   0.0052550   -0.0035690   -0.0476270    0.4116001    0.0841714    0.9074693
   0.0033000   -0.0039810   -0.0465390    0.7049857   -0.2630538    0.6586334
   0.0021750   -0.0044700   -0.0454540    0.1612955   -0.4296525    0.8884720
   0.0011290   -0.0040440   -0.0460430   -0.8441527   -0.1681173    0.5090607
   0.0096470   -0.0046870   -0.0487100    0.8817314   -0.4675923   -0.0625075
   0.0089410   -0.0055030   -0.0482350    0.2414990   -0.8608389    0.4479225
   0.0071450   -0.0047890   -0.0482240   -0.2565245   -0.7178396    0.6472260
   0.0050960   -0.0046870   -0.0479080    0.2405003   -0.8429973    0.4811602
   0.0030880   -0.0051460   -0.0473570    0.4929439   -0.8288065    0.2647379
   0.0018190   -0.0058100   -0.0468500   -0.0514426   -0.9296207    0.3649096
   0.0009980   -0.0050440   -0.0470320   -0.8865016   -0.3566236    0.2948465
   0.0094010   -0.0046870   -0.0501080    0.8633916   -0.4515828   -0.2250063
   0.0085750   -0.0055030   -0.0503110    0.1780415   -0.9500450   -0.2563507
   0.0068840   -0.0047890   -0.0497080   -0.2614115   -0.9500047   -0.1707489
   0.0048500   -0.0046870   -0.0493050    0.0502169   -0.9715192   -0.2315789
   0.0027750   -0.0051460   -0.0491350    0.3091606   -0.9082190   -0.2820601
   0.0014090   -0.0058100   -0.0491790   -0.2032221   -0.9575271   -0.2045549
   0.0006990   -0.0050440   -0.0487270   -0.9258957   -0.3691029    0.0805000
   0.0093300   -0.0041070   -0.0513760    0.8535673   -0.3375537   -0.3968379
   0.0084370   -0.0045170   -0.0519620    0.1066801   -0.6837697   -0.7218575
   0.0067800   -0.0041690   -0.0510400   -0.3443630   -0.7033011   -0.6219178
   0.0046690   -0.0041220   -0.0505810   -0.0256326   -0.7173815   -0.6962089
   0.0025330   -0.0043590   -0.0506340    0.2585882   -0.6366209   -0.7265301
   0.0010710   -0.0047530   -0.0510910   -0.2978636   -0.6777777   -0.6722311
   0.0004150   -0.0042640   -0.0500900   -0.9661280   -0.2497555   -0.0649526
   0.0477970   -0.0048230    0.0219630    0.8692461   -0.4930346   -0.0364430
   0.0443410   -0.0044670    0.0139650    0.5319099   -0.2922247   -0.7947808
   0.0377730   -0.0033130    0.0144140   -0.2472018   -0.0486415   -0.9677424
   0.0318910   -0.0022480    0.0158570   -0.3509350   -0.2367058   -0.9059884
   0.0249470   -0.0010040    0.0170810    0.0528372   -0.2228212   -0.9734264
   0.0131960    0.0009130    0.0130780    0.0382559   -0.0093158   -0.9992246
   0.0083490    0.0018360    0.0157540   -0.7532048   -0.0526521   -0.6556755
   0.0078570    0.0020680    0.0204990   -0.9976838   -0.0260003    0.0628564
   0.0110970    0.0017480    0.0284340   -0.9926344    0.0790377    0.0918154
   0.0457590   -0.0013640    0.0164640    0.6709561    0.5056040   -0.5423859
   0.0397920   -0.0001880    0.0173120    0.0722257    0.8503528   -0.5212328
   0.0312680    0.0012960    0.0188970    0.0513502    0.7448146   -0.6652927
   0.0239150    0.0033910    0.0187190    0.2099729    0.7445388   -0.6336982
   0.0152920    0.0059080    0.0183960    0.1172384    0.8656612   -0.4867092
   0.0096260    0.0066640    0.0198860   -0.5821573    0.6980046   -0.4169922
   0.0077160    0.0058150    0.0224770   -0.9991714   -0.0035884    0.0405408
   0.0470200   -0.0004430    0.0202850    0.7074621    0.6676787   -0.2317379
   0.0415500    0.0003900    0.0213120    0.1533493    0.9795337   -0.1303752
   0.0304550    0.0025230    0.0232060    0.2634642    0.9381810   -0.2245064
   0.0231730    0.0064590    0.0233630    0.2612884    0.9459335   -0.1921932
   0.0168180    0.0065000    0.0249540    0.1496512    0.9827453   -0.1087021
   0.0106110    0.0080500    0.0258590   -0.1241282    0.9788651   -0.1625276
   0.0076710    0.0079190    0.0266590   -0.9583453    0.2850281    0.0182542
   0.0476400   -0.0004430    0.0238040    0.7515103    0.6517664    0.1021409
   0.0421490    0.0003900    0.0247100    0.1984089    0.9613750    0.1907670
   0.0310760    0.0025230    0.0267250    0.3918528    0.8715427    0.2947283
   0.0241790    0.0064590    0.0290680    0.2922884    0.9154593    0.2765897
   0.0176630    0.0065000    0.0297480    0.1527610    0.9687059    0.1956346
   0.0115210    0.0080500    0.0310180    0.1375886    0.9531685    0.2693309
   0.0084840    0.0079190    0.0312730   -0.8339686    0.4214081    0.3562467
   0.0465900   -0.0014440    0.0275410    0.7507897    0.3980640    0.5271242
   0.0411460   -0.0004450    0.0285410    0.2061308    0.6823467    0.7013651
   0.0331870    0.0003760    0.0289200    0.3171420    0.3665039    0.8746976
   0.0231130    0.0032670    0.0325410    0.3382116    0.4769810    0.8112349
   0.0179360    0.0044830    0.0339450    0.2726514    0.7050020    0.6547010
   0.0125450    0.0058100    0.0355100    0.0793995    0.5979098    0.7976212
   0.0093560    0.0052470    0.0341460   -0.8606817    0.1024136    0.4987369
   0.0449950   -0.0040940    0.0298480    0.6376482   -0.2518058    0.7280101
   0.0395910   -0.0031180    0.0311050    0.0157468   -0.1526099    0.9881610
   0.0348580   -0.0023550    0.0292060    0.0010209   -0.4286598    0.9034654
   0.0214240    0.0000780    0.0324850    0.3336752   -0.2849294    0.8985967
   0.0175280    0.0008600    0.0359070    0.4118188    0.0242541    0.9109429
   0.0128240    0.0017310    0.0376470   -0.1483476    0.0140951    0.9888348
   0.0096860    0.0021740    0.0343520   -0.9365065    0.0144931    0.3503506
   0.0434950   -0.0068660    0.0280450    0.3657095   -0.8150489    0.4493905
   0.0390100   -0.0062570    0.0292050   -0.2167804   -0.8261806    0.5200307
   0.0355480   -0.0043390    0.0273580   -0.2778724   -0.8969342    0.3439418
   0.0239490   -0.0023050    0.0294850    0.1820623   -0.8654894    0.4666705
   0.0172920   -0.0027360    0.0337310    0.3683635   -0.6541371    0.6606157
   0.0134340   -0.0028030    0.0358450   -0.2373781   -0.5539220    0.7980113
   0.0092280   -0.0004050    0.0334730   -0.9661928    0.0155188    0.2573533
   0.0420340   -0.0079590    0.0247620    0.2282846   -0.9684247    0.1001984
   0.0384210   -0.0077500    0.0255860   -0.3807924   -0.9106235    0.1605052
   0.0363750   -0.0049710    0.0249150   -0.4514439   -0.8905642    0.0556225
   0.0268040   -0.0027460    0.0263840    0.0154263   -0.9957488    0.0908092
   0.0170380   -0.0045070    0.0296080    0.2871986   -0.9356201    0.2052607
   0.0137790   -0.0058250    0.0309950   -0.1658859   -0.9330072    0.3193420
   0.0085940   -0.0021180    0.0307210   -0.9702297   -0.1043385    0.2185585
   0.0414240   -0.0079590    0.0213020    0.1951914   -0.9774251   -0.0808728
   0.0377470   -0.0077500    0.0217640   -0.4494462   -0.8865935    0.1093163
   0.0360540   -0.0049710    0.0230940   -0.4968149   -0.8339107    0.2403496
   0.0265580   -0.0027460    0.0249880   -0.0157911   -0.9991654    0.0376718
   0.0162780   -0.0045070    0.0252980    0.2591289   -0.9501845   -0.1732096
   0.0127400   -0.0058250    0.0251080   -0.1600007   -0.9726610   -0.1683161
   0.0079630   -0.0021180    0.0271400   -0.9839237   -0.1384552    0.1128022
   0.0425840   -0.0073180    0.0170660    0.2384270   -0.9019660   -0.3600138
   0.0374340   -0.0067100    0.0174420   -0.4043225   -0.8797631   -0.2500805
   0.0337200   -0.0051520    0.0196120   -0.4504046   -0.8924350   -0.0263718
   0.0255140   -0.0035130    0.0213450   -0.0256058   -0.9623618   -0.2705627
   0.0142730   -0.0041080    0.0189040    0.1386656   -0.8267431   -0.5452226
   0.0100700   -0.0035490    0.0193170   -0.4090696   -0.7308519   -0.5463676
   0.0076100   -0.0010800    0.0231910   -0.9996098   -0.0225375    0.0165033
   0.0387610   -0.0053880   -0.0069070    0.8180277   -0.5127117   -0.2606865
   0.0378330   -0.0053320   -0.0103300    0.6302178   -0.3134951   -0.7103142
   0.0348310   -0.0048230   -0.0107690   -0.0734783   -0.0740213   -0.9945460
   0.0283450   -0.0036380   -0.0088500   -0.2655811   -0.1121373   -0.9575447
   0.0201660   -0.0021710   -0.0073120   -0.1604821   -0.1257449   -0.9789963
   0.0123440   -0.0007880   -0.0065150   -0.0330804   -0.0772383   -0.9964637
   0.0071020    0.0001140   -0.0067530   -0.2796947    0.0204640   -0.9598709
   0.0042150    0.0006790   -0.0046930   -0.9163610    0.1999718   -0.3468340
   0.0050360    0.0006500   -0.0009600   -0.9523047    0.2559639    0.1661273
   0.0388550   -0.0036670   -0.0095500    0.7308022    0.0339894   -0.6817425
   0.0361330   -0.0026610   -0.0098550    0.0756184    0.5165522   -0.8529101
   0.0290410   -0.0013910   -0.0086050   -0.1073689    0.4606592   -0.8810590
   0.0212420   -0.0000210   -0.0071900   -0.0450921    0.4566503   -0.8885028
   0.0132620    0.0016660   -0.0061750    0.0625632    0.5204286   -0.8516102
   0.0089040    0.0027320   -0.0058380   -0.1224882    0.6313962   -0.7657255
   0.0051750    0.0027520   -0.0042000   -0.7499773    0.6090160   -0.2581350
   0.0398400   -0.0029750   -0.0079970    0.8874420    0.2341249   -0.3970293
   0.0374140   -0.0016710   -0.0078670    0.2853062    0.8814944   -0.3762553
   0.0299270    0.0003640   -0.0067870    0.1156636    0.9099564   -0.3982478
   0.0225200    0.0016910   -0.0054810    0.1188741    0.9114775   -0.3937990
   0.0143630    0.0034980   -0.0041630    0.1523624    0.9236514   -0.3516445
   0.0107290    0.0040620   -0.0034920    0.0236977    0.9564916   -0.2907960
   0.0062290    0.0040860   -0.0024290   -0.6070130    0.7938765   -0.0359907
   0.0401470   -0.0029750   -0.0062520    0.9740470    0.2260644    0.0112803
   0.0378240   -0.0016710   -0.0055440    0.4462764    0.7928055    0.4150865
   0.0304190    0.0003640   -0.0039990    0.2847933    0.7559317    0.5894574
   0.0230120    0.0016910   -0.0026930    0.2614667    0.7965945    0.5450435
   0.0148960    0.0034980   -0.0011410    0.2389859    0.8728348    0.4254941
   0.0112510    0.0040620   -0.0005290    0.1288618    0.9110053    0.3917447
   0.0066590    0.0040860    0.0000120   -0.5467542    0.7692973    0.3305172
   0.0400900   -0.0040680   -0.0049840    0.9648002    0.0155080    0.2625263
   0.0375470   -0.0030740   -0.0037930    0.3639707    0.0464405    0.9302519
   0.0313000   -0.0026070   -0.0035920    0.1164119   -0.3334435    0.9355553
   0.0222380   -0.0009850   -0.0019940    0.1686506   -0.1657172    0.9716454
   0.0144360    0.0010070    0.0002040    0.2655638    0.1914504    0.9448929
   0.0105310    0.0021880    0.0015600    0.1712057    0.3600997    0.9170697
   0.0061170    0.0023830    0.0015150   -0.5744827    0.4879117    0.6571999
   0.0398070   -0.0055010   -0.0046680    0.8551635   -0.3652036    0.3678610
   0.0369610   -0.0049650   -0.0032940    0.2755643    0.0259654    0.9609319
   0.0320350   -0.0041750   -0.0054300    0.0740218    0.0600442    0.9954474
   0.0213180   -0.0022560   -0.0035410    0.2392133   -0.0733705    0.9681910
   0.0137190   -0.0008450   -0.0005530    0.3490642   -0.0865240    0.9330958
   0.0094480   -0.0000270    0.0019450    0.1826309   -0.0165943    0.9830415
   0.0053090    0.0006790    0.0015110   -0.6603382    0.1876171    0.7271543
   0.0384910   -0.0068430   -0.0045860    0.6600230   -0.7071781    0.2535128
   0.0356290   -0.0069800   -0.0031010    0.2155116    0.0400025    0.9756816
   0.0300970   -0.0048220   -0.0038890    0.0777201    0.4712111    0.8785896
   0.0209510   -0.0031320   -0.0023550    0.2790793    0.0624069    0.9582380
   0.0132840   -0.0024340    0.0000150    0.3685495   -0.3087813    0.8768269
   0.0086220   -0.0024030    0.0020530    0.1015078   -0.3663507    0.9249234
   0.0051770   -0.0010860    0.0016020   -0.7599036   -0.0928564    0.6433695
   0.0370250   -0.0079440   -0.0056140    0.5738799   -0.8187574    0.0172676
   0.0340330   -0.0087980   -0.0046060    0.0518923   -0.8494810    0.5250611
   0.0277070   -0.0064490   -0.0039100   -0.1725959   -0.6881930    0.7046992
   0.0201610   -0.0049240   -0.0026400    0.0193372   -0.8280702    0.5602908
   0.0125100   -0.0043360   -0.0010200    0.1285063   -0.9004866    0.4154637
   0.0074990   -0.0045680    0.0002530   -0.1530089   -0.8842551    0.4412269
   0.0048060   -0.0027830    0.0002780   -0.8650493   -0.3469523    0.3623725
   0.0366870   -0.0079440   -0.0075300    0.5481804   -0.8084285   -0.2143399
   0.0335310   -0.0087980   -0.0074530   -0.0762243   -0.9626066   -0.2599583
   0.0273480   -0.0064490   -0.0059430   -0.3120858   -0.9266446   -0.2096001
   0.0198230   -0.0049240   -0.0045560   -0.1711811   -0.9564946   -0.2362521
   0.0120800   -0.0043360   -0.0034600   -0.0481574   -0.9596514   -0.2770380
   0.0069350   -0.0045680   -0.0029430   -0.3135656   -0.9201552   -0.2345017
   0.0043960   -0.0027830   -0.0020460   -0.9255745   -0.3776144    0.0268172
   0.0371060   -0.0070750   -0.0093600    0.5650539   -0.6598595   -0.4952773
   0.0339760   -0.0072510   -0.0098270   -0.1114316   -0.6492291   -0.7523859
   0.0276830   -0.0055010   -0.0078560   -0.3371712   -0.6314771   -0.6982494
   0.0198370   -0.0040110   -0.0063540   -0.2052173   -0.6560633   -0.7262691
   0.0120240   -0.0030370   -0.0055650   -0.0789602   -0.6347645   -0.7686607
   0.0067790   -0.0028060   -0.0056200   -0.3461672   -0.5890526   -0.7301954
   0.0041340   -0.0014540   -0.0039390   -0.9530548   -0.2108241   -0.2173472
   0.0216960   -0.0040870   -0.0203990    0.8368492   -0.4849511   -0.2539800
   0.0207990   -0.0040370   -0.0238280    0.6527360   -0.2982852   -0.6963919
   0.0180810   -0.0035800   -0.0243170   -0.0629969   -0.0754696   -0.9951561
   0.0122570   -0.0025130   -0.0225140   -0.2733343   -0.1104752   -0.9555541
   0.0048970   -0.0011930   -0.0211200   -0.1568582   -0.1262544   -0.9795179
  -0.0021520    0.0000520   -0.0204590   -0.0168632   -0.0798649   -0.9966630
  -0.0068900    0.0008650   -0.0207860   -0.2887632    0.0221903   -0.9571433
  -0.0094620    0.0013720   -0.0187820   -0.9234175    0.1966237   -0.3296048
  -0.0086580    0.0013470   -0.0150470   -0.9542755    0.2481379    0.1666908
   0.0217660   -0.0023630   -0.0230390    0.7472397    0.0426814   -0.6631826
   0.0193130   -0.0014050   -0.0233900    0.0882226    0.5130572   -0.8538086
   0.0129290   -0.0002630   -0.0222640   -0.1109861    0.4612716   -0.8802900
   0.0059100    0.0009680   -0.0209870   -0.0419460    0.4560420   -0.8889692
  -0.0012740    0.0025140   -0.0201120    0.0749406    0.5175665   -0.8523548
  -0.0051970    0.0035020   -0.0198520   -0.1309748    0.6331075   -0.7629026
  -0.0085490    0.0034540   -0.0182810   -0.7670262    0.5913687   -0.2489052
   0.0226960   -0.0016600   -0.0214730    0.8925501    0.2358001   -0.3843861
   0.0205230   -0.0004030   -0.0213900    0.3032993    0.8744617   -0.3785846
   0.0137920    0.0014980   -0.0204420    0.1179777    0.9093823   -0.3988798
   0.0071250    0.0026920   -0.0192670    0.1215259    0.9109490   -0.3942124
  -0.0002120    0.0043520   -0.0180930    0.1575530    0.9225170   -0.3523343
  -0.0034840    0.0048520   -0.0174870    0.0141986    0.9574080   -0.2883893
  -0.0075420    0.0047960   -0.0165020   -0.6250859    0.7798533   -0.0331141
   0.0230030   -0.0016600   -0.0197310    0.9740591    0.2261445    0.0082146
   0.0209330   -0.0004030   -0.0190660    0.4670326    0.7838113    0.4092927
   0.0142830    0.0014980   -0.0176550    0.2894960    0.7548282    0.5885800
   0.0076170    0.0026920   -0.0164790    0.2637586    0.7962493    0.5444433
   0.0003200    0.0043520   -0.0150730    0.2399820    0.8726755    0.4252601
  -0.0029610    0.0048520   -0.0145230    0.1180574    0.9118970    0.3930730
  -0.0071120    0.0047960   -0.0140620   -0.5624380    0.7566294    0.3334299
   0.0229550   -0.0027540   -0.0184650    0.9658056    0.0180658    0.2586371
   0.0206870   -0.0018100   -0.0173190    0.3816484    0.0403539    0.9234263
   0.0150370   -0.0014510   -0.0172250    0.1175194   -0.3337888    0.9352937
   0.0068820    0.0000100   -0.0157870    0.1714516   -0.1661031    0.9710891
  -0.0001150    0.0018570   -0.0137300    0.2722477    0.1903415    0.9432133
  -0.0036110    0.0029650   -0.0124470    0.1654221    0.3615376    0.9175653
  -0.0076070    0.0030860   -0.0125660   -0.5881927    0.4718234    0.6568196
   0.0226780   -0.0041890   -0.0181490    0.8665752   -0.3453022    0.3602968
   0.0201330   -0.0037070   -0.0168280    0.2853420    0.0217375    0.9581792
   0.0156470   -0.0029950   -0.0190410    0.0622057    0.0587705    0.9963315
   0.0060020   -0.0012680   -0.0173410    0.2472484   -0.0755432    0.9660028
  -0.0008080    0.0000010   -0.0144920    0.3677114   -0.0901354    0.9255614
  -0.0046230    0.0007380   -0.0120750    0.1833555   -0.0164907    0.9829084
  -0.0083680    0.0013720   -0.0125780   -0.6689887    0.1831955    0.7203427
   0.0214660   -0.0055500   -0.0180840    0.6916429   -0.6783654    0.2478923
   0.0188960   -0.0057380   -0.0166510    0.2187014    0.0416483    0.9749026
   0.0139060   -0.0036790   -0.0175350    0.0613064    0.4723759    0.8792625
   0.0056750   -0.0021530   -0.0161630    0.2889173    0.0607059    0.9554274
  -0.0012200   -0.0015920   -0.0139280    0.3931886   -0.3112773    0.8651642
  -0.0054090   -0.0016460   -0.0119740    0.1019497   -0.3661963    0.9249359
  -0.0085160   -0.0003900   -0.0124840   -0.7675750   -0.0809945    0.6358212
   0.0201020   -0.0066700   -0.0191290    0.6078152   -0.7939801    0.0125042
   0.0173940   -0.0075740   -0.0181720    0.0610927   -0.8497739    0.5235953
   0.0117130   -0.0053410   -0.0175900   -0.1897587   -0.6836970    0.7046631
   0.0049240   -0.0039520   -0.0164530    0.0264291   -0.8289017    0.5587697
  -0.0019710   -0.0034990   -0.0149680    0.1500162   -0.9001131    0.4090128
  -0.0064940   -0.0038190   -0.0137810   -0.1587044   -0.8827664    0.4421950
  -0.0089020   -0.0020850   -0.0138050   -0.8733846   -0.3285642    0.3595063
   0.0197630   -0.0066700   -0.0210470    0.5820246   -0.7833266   -0.2182815
   0.0168920   -0.0075740   -0.0210200   -0.0646040   -0.9629611   -0.2617865
   0.0113550   -0.0053410   -0.0196240   -0.3228462   -0.9234332   -0.2074643
   0.0045860   -0.0039520   -0.0183700   -0.1668189   -0.9570627   -0.2370704
  -0.0024020   -0.0034990   -0.0174080   -0.0301863   -0.9597062   -0.2793794
  -0.0070570   -0.0038190   -0.0169760   -0.3219897   -0.9176895   -0.2327414
  -0.0093110   -0.0020850   -0.0161290   -0.9334387   -0.3573590    0.0314139
   0.0201270   -0.0057900   -0.0228670    0.5954351   -0.6365514   -0.4901625
   0.0172810   -0.0060160   -0.0233840   -0.0997769   -0.6497477   -0.7535732
   0.0116430   -0.0043840   -0.0215280   -0.3471348   -0.6287993   -0.6957793
   0.0045850   -0.0030360   -0.0201660   -0.2009756   -0.6565047   -0.7270560
  -0.0024630   -0.0021980   -0.0195110   -0.0611699   -0.6356838   -0.7695222
