NORM_ASCII
1545 1652
  -0.2454210   -0.2492910    0.0056900   -0.4668419   -0.1093924    0.8775488
  -0.2449400   -0.2434940    0.0067540   -0.5336377   -0.2399091    0.8109713
  -0.2449680   -0.2378420    0.0084990   -0.6390128   -0.1971068    0.7435130
  -0.2452000   -0.2320890    0.0079450   -0.3746315    0.7498536    0.5453171
  -0.2431660   -0.2997010   -0.0041090   -0.5663500   -0.8209609    0.0726006
  -0.2451340   -0.2953770   -0.0006440   -0.9016833   -0.2450681    0.3562428
  -0.2465490   -0.2901050    0.0014410   -0.7613972   -0.2249105    0.6080210
  -0.2469560   -0.2842850    0.0019360   -0.7763150   -0.1415464    0.6142472
  -0.2472090   -0.2783550    0.0019380   -0.8290653   -0.1468746    0.5395169
  -0.2477830   -0.2725150    0.0021620   -0.8930416   -0.1041351    0.4377585
  -0.2481060   -0.2666830    0.0026310   -0.9107977   -0.0345933    0.4114011
  -0.2479540   -0.2608370    0.0032330   -0.9074273    0.0151533    0.4199359
  -0.2474480   -0.2550120    0.0037950   -0.9185645    0.0344789    0.3937644
  -0.2469230   -0.2491810    0.0042270   -0.9440578    0.0117320    0.3295713
  -0.2466880   -0.2433210    0.0045280   -0.9659725   -0.0565158    0.2523949
  -0.2468150   -0.2375170    0.0054020   -0.9698095   -0.0017663    0.2438573
  -0.2459330   -0.2319720    0.0059730   -0.5306615    0.8176520    0.2232570
  -0.2431920   -0.2999040   -0.0068250   -0.1608208   -0.9318345   -0.3253016
  -0.2474970   -0.2957840   -0.0091720   -0.7131848   -0.5545283   -0.4287957
  -0.2473340   -0.2899680   -0.0091960   -0.7303087   -0.0148517   -0.6829559
  -0.2479230   -0.2844280   -0.0067820   -0.7749913    0.2066125   -0.5972434
  -0.2481350   -0.2786740   -0.0049190   -0.8253693    0.1425040   -0.5463132
  -0.2485500   -0.2729020   -0.0031180   -0.8619951    0.0974128   -0.4974688
  -0.2484290   -0.2670100   -0.0018510   -0.8689628    0.0980525   -0.4850663
  -0.2477020   -0.2610290   -0.0010930   -0.8333614    0.1277159   -0.5377708
  -0.2468460   -0.2550750   -0.0004550   -0.7979237    0.1379451   -0.5867614
  -0.2460720   -0.2490920    0.0000790   -0.8023651    0.1095789   -0.5866879
  -0.2458610   -0.2431000    0.0007330   -0.8295613    0.0514587   -0.5560396
  -0.2467750   -0.2370840    0.0015790   -0.8706025    0.0105922   -0.4918730
  -0.2468500   -0.2312830    0.0005500   -0.5133954    0.8389025   -0.1807420
  -0.2435160   -0.2983360   -0.0087710    0.2297375   -0.6920690   -0.6842961
  -0.2433420   -0.2926790   -0.0081830    0.0359759   -0.1844326   -0.9821865
  -0.2432300   -0.2870220   -0.0079220   -0.0080482    0.1689315   -0.9855949
  -0.2439460   -0.2815300   -0.0066250   -0.0202765    0.3002777   -0.9536363
  -0.2447010   -0.2760320   -0.0051850   -0.0023296    0.2597561   -0.9656714
  -0.2448810   -0.2704230   -0.0042120   -0.0391878    0.2046799   -0.9780442
  -0.2444920   -0.2648200   -0.0033060   -0.0542261    0.1631023   -0.9851178
  -0.2437980   -0.2592440   -0.0023950   -0.0282520    0.1320705   -0.9908376
  -0.2432850   -0.2536110   -0.0018110   -0.1038440    0.0997891   -0.9895749
  -0.2429400   -0.2479270   -0.0016400   -0.2698038    0.0654702   -0.9606870
  -0.2424960   -0.2422540   -0.0018190   -0.3728417    0.0322785   -0.9273334
  -0.2424710   -0.2365650   -0.0017590   -0.4113116   -0.0711831   -0.9087110
  -0.2416150   -0.2310610   -0.0029030   -0.3102725    0.7715056   -0.5554368
  -0.2391640   -0.2994580   -0.0013800    0.2966355   -0.9436817    0.1465338
  -0.2349420   -0.2953420   -0.0008760    0.8965158   -0.4430006    0.0031504
  -0.2340610   -0.2899850   -0.0004260    0.9819077    0.1813426   -0.0545176
  -0.2373290   -0.2847530   -0.0007640    0.9162852    0.3683985    0.1571749
  -0.2400110   -0.2797930    0.0006450    0.9027237    0.1201312    0.4131082
  -0.2408010   -0.2741830    0.0019080    0.8874958   -0.0287991    0.4599151
  -0.2407770   -0.2682350    0.0028440    0.8689410   -0.0593280    0.4913468
  -0.2408130   -0.2622600    0.0033900    0.8707534   -0.0862171    0.4841024
  -0.2404740   -0.2564390    0.0038650    0.8727762   -0.1838137    0.4521882
  -0.2389980   -0.2507970    0.0047830    0.8639797   -0.2566913    0.4331843
  -0.2377410   -0.2451650    0.0059690    0.8424477   -0.3485621    0.4108361
  -0.2361310   -0.2397190    0.0075630    0.8508190   -0.2654604    0.4534730
  -0.2357130   -0.2339150    0.0079200    0.6522970    0.6516373    0.3871401
  -0.2403170   -0.2332860    0.0036360    0.1434339    0.9804859    0.1344398
  -0.2411460   -0.2994000   -0.0045660   -0.0642493   -0.9916431   -0.1118752
  -0.2390900   -0.3652170    0.0088350   -0.8955965    0.4300817    0.1137391
  -0.2350180   -0.3646660    0.0128920    0.0735399    0.6289964    0.7739221
  -0.2332560   -0.3644050    0.0088530    0.8793591    0.4755602   -0.0238782
  -0.2357040   -0.3664520    0.0043140   -0.0706300    0.5335565   -0.8428101
  -0.2342330   -0.3815040    0.0087880    0.4849310   -0.5398992    0.6880050
  -0.2329950   -0.3793830    0.0070260    0.9420961    0.1044688    0.3186552
  -0.2338650   -0.3764960    0.0075220    0.9554559    0.2456888    0.1635269
  -0.2351010   -0.3782320    0.0098280    0.0994362   -0.2176933    0.9709387
  -0.2339700   -0.3735370    0.0083070    0.9957954    0.0686450    0.0606579
  -0.2357320   -0.3744840    0.0102160    0.1193720   -0.1836317    0.9757201
  -0.2339560   -0.3704360    0.0085690    0.9818576   -0.1893335    0.0104135
  -0.2356590   -0.3711150    0.0109810    0.0966809   -0.2822495    0.9544569
  -0.2332070   -0.3674950    0.0090710    0.9866426   -0.1621735   -0.0153641
  -0.2349430   -0.3681440    0.0126940    0.1750283   -0.2271342    0.9580058
  -0.2337230   -0.3822690    0.0062440    0.8692803   -0.4254009    0.2517655
  -0.2332240   -0.3807560    0.0046400    0.8646835   -0.2978884   -0.4044564
  -0.2339490   -0.3783920    0.0049440    0.3040414    0.2996435   -0.9043078
  -0.2348000   -0.3760560    0.0053300    0.1578003    0.3677005   -0.9164581
  -0.2359060   -0.3737560    0.0059290    0.0240861    0.1891322   -0.9816562
  -0.2359880   -0.3714320    0.0054220   -0.0298201   -0.1989713   -0.9795515
  -0.2357180   -0.3688810    0.0050890    0.0180266   -0.3209962   -0.9469089
  -0.2341180   -0.3826800    0.0056160    0.3315427   -0.8669914   -0.3720287
  -0.2359430   -0.3806950    0.0070730   -0.7489754   -0.6122297   -0.2533984
  -0.2372390   -0.3779410    0.0079290   -0.9746103   -0.2195676   -0.0438723
  -0.2376110   -0.3747140    0.0084150   -0.9924403   -0.0998990    0.0712918
  -0.2378650   -0.3714980    0.0089460   -0.9713832   -0.1918866    0.1399796
  -0.2388050   -0.3684630    0.0093970   -0.9619918   -0.2268632    0.1520026
  -0.2373480   -0.3389250    0.0068680   -0.0622391    0.4325608   -0.8994540
  -0.2420510   -0.3396080    0.0096570   -0.8206731    0.3492451   -0.4522427
  -0.2423940   -0.3397560    0.0138440   -0.9002187    0.2864311    0.3279687
  -0.2385220   -0.3397830    0.0178270    0.0348333    0.3175947    0.9475865
  -0.2342120   -0.3392970    0.0141060    0.9363155    0.1904320    0.2950406
  -0.2334830   -0.3390320    0.0089540    0.8104461    0.3352239   -0.4804186
  -0.2374810   -0.3652790    0.0105010   -0.6575938   -0.7511182   -0.0582388
  -0.2364150   -0.3641260    0.0074400   -0.5082283   -0.7743268   -0.3769907
  -0.2344660   -0.3646970    0.0081690    0.3894113   -0.9205084   -0.0319863
  -0.2371580   -0.3655610    0.0106120   -0.0186991   -0.8824764    0.4699848
  -0.2345340   -0.3638900    0.0055710    0.2329282   -0.7580753   -0.6091521
  -0.2314520   -0.3611960    0.0065070    0.6167079   -0.0179892   -0.7869865
  -0.2337660   -0.3610270    0.0097150    0.8930232   -0.1410062    0.4273486
  -0.2339090   -0.3575300    0.0067160    0.7721925    0.4021913   -0.4918953
  -0.2350690   -0.3566800    0.0104720    0.8474945    0.2413899    0.4727408
  -0.2352490   -0.3531750    0.0074490    0.8061108    0.1744644   -0.5654622
  -0.2360120   -0.3523590    0.0112300    0.9229402    0.0767904    0.3772063
  -0.2355980   -0.3481750    0.0084280    0.8655160   -0.0185841   -0.5005364
  -0.2361050   -0.3478870    0.0119140    0.9492292   -0.1020633    0.2975686
  -0.2351890   -0.3435190    0.0087190    0.8757039   -0.1636434   -0.4542725
  -0.2352100   -0.3435880    0.0130880    0.9282653   -0.2672845    0.2586165
  -0.2357700   -0.3639480    0.0058260   -0.4692913   -0.5846953   -0.6617380
  -0.2360680   -0.3597340    0.0061470   -0.4521511   -0.0901223   -0.8873767
  -0.2367180   -0.3555780    0.0066420   -0.2349162    0.0242054   -0.9717142
  -0.2374540   -0.3514510    0.0071960   -0.1563437    0.0649491   -0.9855650
  -0.2373400   -0.3472520    0.0073820   -0.0513991    0.0610059   -0.9968131
  -0.2374100   -0.3429940    0.0071880    0.0214862   -0.0340412   -0.9991894
  -0.2382560   -0.3604150    0.0081390   -0.8152993   -0.2529669   -0.5208597
  -0.2391440   -0.3562520    0.0080190   -0.7761722   -0.0732923   -0.6262467
  -0.2396190   -0.3519550    0.0080660   -0.7732789   -0.0010442   -0.6340652
  -0.2403090   -0.3477980    0.0087980   -0.7896203    0.0015385   -0.6135939
  -0.2413300   -0.3437930    0.0098450   -0.8268876   -0.0946446   -0.5543458
  -0.2394930   -0.3615220    0.0106630   -0.9377277   -0.2901094    0.1910584
  -0.2401680   -0.3571340    0.0113340   -0.9487191   -0.1332613    0.2866593
  -0.2404500   -0.3527500    0.0120530   -0.9238861   -0.1761321    0.3397233
  -0.2408520   -0.3484110    0.0130070   -0.9159159   -0.2009223    0.3474596
  -0.2416440   -0.3440860    0.0133740   -0.9009911   -0.2525984    0.3527167
  -0.2357490   -0.3628360    0.0134860    0.1190668   -0.2376649    0.9640220
  -0.2366640   -0.3581450    0.0128090    0.2116165   -0.0338404    0.9767667
  -0.2375740   -0.3535310    0.0141220    0.2297607   -0.1774066    0.9569414
  -0.2377410   -0.3487560    0.0151470    0.2326017   -0.3146477    0.9202680
  -0.2377030   -0.3442340    0.0168590    0.1857003   -0.4332111    0.8819544
  -0.2334890   -0.3358980    0.0168300    0.7775712   -0.4682787    0.4196405
  -0.2340810   -0.3359460    0.0156280    0.8573698   -0.0768645   -0.5089292
  -0.2359570   -0.3304060    0.0145270    0.8812849    0.2052069   -0.4257078
  -0.2362670   -0.3309690    0.0173200    0.7870967    0.1723239    0.5922695
  -0.2370580   -0.3249040    0.0144440    0.9631916    0.1168775   -0.2420777
  -0.2386230   -0.3260840    0.0172520    0.7797423    0.1283287    0.6128080
  -0.2382450   -0.3192750    0.0150380    0.9972181    0.0594299   -0.0449913
  -0.2387750   -0.3200910    0.0175700    0.8447316    0.0015361    0.5351880
  -0.2383230   -0.3135070    0.0150770    0.9935866   -0.0590411   -0.0964351
  -0.2382850   -0.3139530    0.0180580    0.8885614   -0.1045915    0.4466757
  -0.2374630   -0.3077860    0.0157270    0.9303122   -0.3298010   -0.1604697
  -0.2374730   -0.3081840    0.0184810    0.8706052   -0.2675545    0.4128695
  -0.2348920   -0.3027080    0.0159390    0.9605264   -0.2741287   -0.0473541
  -0.2355610   -0.3027190    0.0184700    0.8594715   -0.2002217    0.4703404
  -0.2348190   -0.2972310    0.0166410    0.6295068    0.7751827   -0.0530375
  -0.2364390   -0.2970350    0.0193970    0.4854007    0.7065246    0.5149846
  -0.2358180   -0.3347050    0.0132500    0.9251602   -0.0424309   -0.3771980
  -0.2378640   -0.3297510    0.0132820    0.8528404    0.3291436   -0.4053737
  -0.2382480   -0.3241820    0.0130210    0.8354332    0.0952432   -0.5412764
  -0.2388890   -0.3187120    0.0127750    0.9192557    0.0177126   -0.3932623
  -0.2390340   -0.3132180    0.0125470    0.9630280   -0.0229155   -0.2684249
  -0.2384080   -0.3076650    0.0124580    0.9132392   -0.3114836   -0.2626254
  -0.2353920   -0.3033090    0.0118300    0.9203939   -0.2814400   -0.2714157
  -0.2355630   -0.2978250    0.0119750    0.6041461    0.7594233   -0.2414203
  -0.2376880   -0.3394540    0.0133550    0.5262079   -0.8347286   -0.1622761
  -0.2380990   -0.3395260    0.0112640    0.3948666   -0.9163580   -0.0660935
  -0.2351730   -0.3362870    0.0087210    0.5618114   -0.3463812   -0.7512576
  -0.2380310   -0.3314970    0.0088600    0.4982422    0.3057868   -0.8113256
  -0.2400370   -0.3261390    0.0093310    0.4763065    0.0844085   -0.8752185
  -0.2397550   -0.3202540    0.0090800    0.4926113   -0.0236535   -0.8699279
  -0.2400640   -0.3144570    0.0091150    0.5299594   -0.0472408   -0.8467061
  -0.2397180   -0.3085570    0.0093240    0.6051177   -0.2645045   -0.7509127
  -0.2372080   -0.3035390    0.0082040    0.6315355   -0.2128759   -0.7455513
  -0.2368010   -0.2978250    0.0082650    0.3388775    0.7778787   -0.5292133
  -0.2387930   -0.3396190    0.0099400   -0.0888736   -0.6632204   -0.7431287
  -0.2394140   -0.3344280    0.0093730   -0.3901795   -0.0610405   -0.9187132
  -0.2401910   -0.3292200    0.0094020   -0.4903544   -0.1091177   -0.8646652
  -0.2408970   -0.3240160    0.0094360   -0.4210759   -0.0780940   -0.9036572
  -0.2417390   -0.3187800    0.0094660   -0.3674854   -0.0314805   -0.9294963
  -0.2423450   -0.3135350    0.0093850   -0.4002767   -0.0467726   -0.9151999
  -0.2415800   -0.3083960    0.0087170   -0.3072360   -0.1112929   -0.9451031
  -0.2415780   -0.3032990    0.0075060   -0.2485379   -0.0683570   -0.9662071
  -0.2412920   -0.2981300    0.0076460   -0.2449981    0.7649663   -0.5956530
  -0.2420000   -0.3384470    0.0113430   -0.7748545   -0.6223787   -0.1106582
  -0.2415230   -0.3334000    0.0116010   -0.9321422   -0.1733095   -0.3179226
  -0.2422710   -0.3284490    0.0111850   -0.9112940   -0.2143396   -0.3515705
  -0.2434030   -0.3235120    0.0108840   -0.8712651   -0.1890577   -0.4529396
  -0.2442330   -0.3185250    0.0110770   -0.8548884   -0.0878743   -0.5113159
  -0.2446160   -0.3134860    0.0112670   -0.8752672   -0.0586801   -0.4800667
  -0.2450250   -0.3084370    0.0114220   -0.8816469   -0.0622741   -0.4677826
  -0.2456780   -0.3034240    0.0115850   -0.8964221    0.0029310   -0.4431916
  -0.2451500   -0.2984130    0.0111790   -0.5581942    0.7427876   -0.3697105
  -0.2390340   -0.3394970    0.0153660   -0.4081236   -0.7603300    0.5053052
  -0.2411560   -0.3346620    0.0147840   -0.7955945   -0.2514518    0.5511817
  -0.2420860   -0.3292530    0.0144870   -0.9329676   -0.2175945    0.2867475
  -0.2435130   -0.3240120    0.0144690   -0.9536579   -0.2044403    0.2207731
  -0.2444370   -0.3186770    0.0147420   -0.9662034   -0.1229155    0.2265893
  -0.2449090   -0.3132380    0.0150590   -0.9684149   -0.0764118    0.2373475
  -0.2454300   -0.3078210    0.0153390   -0.9589308   -0.1245377    0.2548372
  -0.2457820   -0.3024130    0.0159360   -0.9715135   -0.0073691    0.2368695
  -0.2451900   -0.2970590    0.0151570   -0.5565473    0.8306445   -0.0168767
  -0.2374040   -0.3391700    0.0162860    0.0771791   -0.6148376    0.7848682
  -0.2395990   -0.3337920    0.0169110   -0.3373394   -0.2046074    0.9188786
  -0.2410830   -0.3286140    0.0168330   -0.5590543   -0.1931626    0.8063166
  -0.2421670   -0.3233580    0.0170600   -0.6745133   -0.1540123    0.7220194
  -0.2426520   -0.3180650    0.0179450   -0.6427410   -0.1047588    0.7588871
  -0.2425530   -0.3127160    0.0187740   -0.5785384   -0.1003733    0.8094557
  -0.2424240   -0.3073760    0.0195290   -0.5348119   -0.1506704    0.8314293
  -0.2432570   -0.3021990    0.0207860   -0.5240435    0.0247998    0.8513303
  -0.2426670   -0.2970080    0.0197490   -0.2476182    0.8897467    0.3834529
  -0.2375400   -0.3336220    0.0170350   -0.0319902   -0.1323735    0.9906835
  -0.2388230   -0.3285480    0.0177820   -0.0266630   -0.0613879    0.9977578
  -0.2395330   -0.3233650    0.0183250    0.0763353   -0.0193652    0.9968941
  -0.2395690   -0.3180730    0.0187460    0.2356214   -0.0904859    0.9676233
  -0.2396290   -0.3127850    0.0192650    0.2516314   -0.1417166    0.9573913
  -0.2393360   -0.3075780    0.0201410    0.2286286   -0.1612459    0.9600670
  -0.2382180   -0.3024860    0.0207920    0.2980335   -0.0195139    0.9543559
  -0.2393850   -0.2984330    0.0145140   -0.0296049    0.9941350   -0.1040153
  -0.2394520   -0.2987100    0.0094840    0.2367914   -0.7764889   -0.5839477
  -0.2391140   -0.2999640    0.0116060   -0.1492177   -0.9685643   -0.1990411
  -0.2434560   -0.2963620    0.0087800   -0.6987039   -0.6237341   -0.3503835
  -0.2393290   -0.2932500    0.0093780    0.0406736   -0.3095921   -0.9499992
  -0.2433450   -0.2908250    0.0080470   -0.7298203   -0.1090652   -0.6748831
  -0.2392690   -0.2878290    0.0089480   -0.0095768    0.0491568   -0.9987452
  -0.2439850   -0.2852610    0.0097690   -0.7771308    0.1299557   -0.6157754
  -0.2400350   -0.2824480    0.0095670   -0.0229190    0.1887199   -0.9817635
  -0.2442490   -0.2795570    0.0109170   -0.8267266    0.0699962   -0.5582326
  -0.2408390   -0.2770430    0.0103280   -0.0045008    0.1457592   -0.9893099
  -0.2447170   -0.2738440    0.0120020   -0.8628735    0.0294090   -0.5045636
  -0.2410710   -0.2715850    0.0106110   -0.0408487    0.0870545   -0.9953657
  -0.2446500   -0.2680780    0.0125420   -0.8697584    0.0316584   -0.4924612
  -0.2407330   -0.2661350    0.0108270   -0.0555810    0.0430342   -0.9975263
  -0.2439770   -0.2622840    0.0125650   -0.8343086    0.0559517   -0.5484511
  -0.2400900   -0.2607080    0.0110500   -0.0293705    0.0105444   -0.9995130
  -0.2431760   -0.2565280    0.0124720   -0.7989185    0.0606209   -0.5983764
  -0.2396290   -0.2552680    0.0109440   -0.1047957   -0.0233418   -0.9942198
  -0.2424560   -0.2507600    0.0122720   -0.8032139    0.0312446   -0.5948707
  -0.2393350   -0.2498320    0.0104210   -0.2704205   -0.0568036   -0.9610651
  -0.2423000   -0.2449710    0.0121910   -0.8299950   -0.0252077   -0.5572009
  -0.2389420   -0.2444470    0.0095510   -0.3730845   -0.0878372   -0.9236301
  -0.2432690   -0.2391470    0.0122990   -0.8706785   -0.0595730   -0.4882316
  -0.2389700   -0.2390220    0.0089180   -0.4103334   -0.1925247   -0.8913813
  -0.2433960   -0.2337490    0.0105710   -0.5240948    0.8025895   -0.2849120
  -0.2381640   -0.2339110    0.0071110   -0.3197574    0.6869796   -0.6525444
  -0.2390890   -0.2994400    0.0142760   -0.5578525   -0.8119074    0.1720670
  -0.2410960   -0.2949180    0.0171910   -0.8972476   -0.2155643    0.3853293
  -0.2425600   -0.2896560    0.0186190   -0.7579713   -0.1620613    0.6318351
  -0.2430190   -0.2840570    0.0184030   -0.7747299   -0.0756692    0.6277482
  -0.2433270   -0.2784120    0.0176820   -0.8273020   -0.0911503    0.5543131
  -0.2439540   -0.2728280    0.0171940   -0.8918234   -0.0604941    0.4483208
  -0.2443300   -0.2672190    0.0169500   -0.9104216    0.0078934    0.4136064
  -0.2442310   -0.2615770    0.0168350   -0.9074394    0.0604389    0.4158135
  -0.2437780   -0.2559580    0.0166820   -0.9187001    0.0769777    0.3873817
  -0.2433060   -0.2503480    0.0164000   -0.9440992    0.0450167    0.3265735
  -0.2431250   -0.2447280    0.0159850   -0.9653601   -0.0355206    0.2584920
  -0.2433050   -0.2390950    0.0161460   -0.9697661    0.0200600    0.2432103
  -0.2424730   -0.2337380    0.0160360   -0.5402832    0.8327992    0.1205804
  -0.2388480   -0.2992820    0.0160000   -0.4421414   -0.7550828    0.4841084
  -0.2377940   -0.2945510    0.0191040   -0.6089181   -0.0046011    0.7932198
  -0.2373740   -0.2890520    0.0201650   -0.2803110    0.1021481    0.9544587
  -0.2388120   -0.2835000    0.0199040   -0.0285431    0.1514068    0.9880593
  -0.2408100   -0.2781640    0.0198300    0.0265817   -0.0043963    0.9996370
  -0.2425110   -0.2728130    0.0189580   -0.2459338   -0.0407145    0.9684312
  -0.2431670   -0.2672510    0.0180950   -0.4189172   -0.0030048    0.9080195
  -0.2429820   -0.2615610    0.0177700   -0.4482204    0.0366691    0.8931707
  -0.2424140   -0.2559080    0.0177810   -0.4442267    0.0499097    0.8945231
  -0.2418040   -0.2502610    0.0178630   -0.4659820   -0.0060741    0.8847734
  -0.2413760   -0.2446070    0.0182130   -0.5309823   -0.1496480    0.8340643
  -0.2414550   -0.2390130    0.0192570   -0.6369095   -0.1149673    0.7623180
  -0.2417390   -0.2336040    0.0180060   -0.3859654    0.8056142    0.4494624
  -0.2347620   -0.2980110    0.0183460   -0.0935423   -0.7885487    0.6078164
  -0.2311720   -0.2940400    0.0206280    0.3691599   -0.3421262    0.8641011
  -0.2314380   -0.2883920    0.0203120    0.5506594    0.3564413    0.7548006
  -0.2358110   -0.2853500    0.0181300    0.5597792    0.4265210    0.7104415
  -0.2373330   -0.2794960    0.0179490    0.6224322    0.1174487    0.7738113
  -0.2381750   -0.2735880    0.0184210    0.5393745   -0.0097192    0.8420099
  -0.2387990   -0.2679950    0.0188390    0.3544980   -0.0182953    0.9348778
  -0.2388170   -0.2622360    0.0189510    0.2612704    0.0135535    0.9651705
  -0.2381620   -0.2564280    0.0188930    0.2831082   -0.0435214    0.9581000
  -0.2370060   -0.2507030    0.0189480    0.2731179   -0.1505036    0.9501343
  -0.2364190   -0.2450880    0.0198410    0.1968180   -0.2719769    0.9419614
  -0.2364630   -0.2395950    0.0218320    0.1327276   -0.1995480    0.9708573
  -0.2358700   -0.2339620    0.0225170    0.2230976    0.7987722    0.5587400
  -0.2350890   -0.2988420    0.0169510    0.2950685   -0.9205598    0.2559379
  -0.2309050   -0.2948240    0.0169450    0.8950686   -0.4422965    0.0567973
  -0.2300730   -0.2896600    0.0167380    0.9790285    0.1880523   -0.0783546
  -0.2333890   -0.2847480    0.0157690    0.9072581    0.4064406    0.1081147
  -0.2361160   -0.2798760    0.0165660    0.9005864    0.1848263    0.3934252
  -0.2369570   -0.2743860    0.0171370    0.8877624    0.0369205    0.4588189
  -0.2369870   -0.2686080    0.0173420    0.8695023    0.0091845    0.4938435
  -0.2370780   -0.2628520    0.0171550    0.8714539   -0.0194717    0.4900909
  -0.2367920   -0.2572480    0.0169180    0.8736778   -0.1242479    0.4703718
  -0.2353680   -0.2517500    0.0171400    0.8646079   -0.2018104    0.4601366
  -0.2341610   -0.2462310    0.0176290    0.8420941   -0.2988653    0.4489512
  -0.2326010   -0.2408370    0.0185470    0.8512991   -0.2078952    0.4817358
  -0.2322360   -0.2352630    0.0181930    0.6454539    0.7010137    0.3032639
  -0.2320840   -0.2961350    0.0107540    0.8756250   -0.4678539   -0.1199736
  -0.2315050   -0.2907560    0.0118070    0.9578731    0.1536367   -0.2426415
  -0.2337090   -0.2850520    0.0121430    0.9118154    0.3723879   -0.1729737
  -0.2353760   -0.2796190    0.0125480    0.9399286    0.2542447   -0.2278023
  -0.2361300   -0.2740170    0.0137070    0.9620450    0.0763891   -0.2619811
  -0.2364100   -0.2682740    0.0143180    0.9810864   -0.0135488   -0.1930955
  -0.2363340   -0.2625070    0.0139580    0.9879811   -0.0816517   -0.1312490
  -0.2356250   -0.2568040    0.0134260    0.9920251   -0.1007217   -0.0757719
  -0.2346960   -0.2510910    0.0134240    0.9783322   -0.1349050   -0.1570566
  -0.2335490   -0.2454400    0.0133480    0.8830212   -0.3712686   -0.2871118
  -0.2311810   -0.2403860    0.0117360    0.8623767   -0.4412052   -0.2482828
  -0.2306340   -0.2350130    0.0107170    0.7735180    0.6326923   -0.0370189
  -0.2358730   -0.2996800    0.0128180    0.2251681   -0.9681500   -0.1094757
  -0.2355440   -0.2991080    0.0117590    0.2273174   -0.7989283   -0.5568127
  -0.2329840   -0.2951370    0.0082400    0.6481616   -0.2464031   -0.7205360
  -0.2323670   -0.2893450    0.0082820    0.5429271    0.1164056   -0.8316729
  -0.2345520   -0.2840980    0.0102490    0.6103663    0.3502700   -0.7104674
  -0.2368840   -0.2786840    0.0113520    0.5597798    0.2165798   -0.7998373
  -0.2379620   -0.2728730    0.0113950    0.5164030    0.0622830   -0.8540777
  -0.2376570   -0.2670190    0.0120390    0.5976157   -0.0140179   -0.8016601
  -0.2369160   -0.2611690    0.0121610    0.6618031   -0.0690857   -0.7464877
  -0.2366600   -0.2553800    0.0111180    0.6259416   -0.0767266   -0.7760864
  -0.2370920   -0.2496640    0.0099450    0.4600968   -0.1154290   -0.8803335
  -0.2366970   -0.2436370    0.0091310    0.2750096   -0.2849690   -0.9182388
  -0.2334450   -0.2391510    0.0074600    0.2285620   -0.4315356   -0.8726606
  -0.2302530   -0.2342540    0.0069090    0.3344490    0.6983891   -0.6327689
  -0.2368460   -0.2352250    0.0138710    0.1292352    0.9915748    0.0088109
  -0.2370720   -0.2991910    0.0137840   -0.0551132   -0.9984090    0.0119141
  -0.2344520   -0.3407440    0.0339170   -0.8118879    0.5646084    0.1485107
  -0.2308850   -0.3407110    0.0370250    0.2152327    0.6322503    0.7442677
  -0.2296340   -0.3408140    0.0336330    0.9376541    0.3351859   -0.0919521
  -0.2320970   -0.3422730    0.0301000   -0.0419816    0.5138633   -0.8568442
  -0.2325320   -0.3545360    0.0341530    0.4400537   -0.5877708    0.6788801
  -0.2313600   -0.3530140    0.0325890    0.9651221   -0.0310088    0.2599573
  -0.2316830   -0.3505570    0.0329460    0.9898223    0.1020416    0.0991937
  -0.2327790   -0.3517540    0.0349430    0.1256884   -0.2023516    0.9712138
  -0.2313640   -0.3481300    0.0335010    0.9966266   -0.0820646    0.0008566
  -0.2328070   -0.3486320    0.0351740    0.1509718   -0.1717820    0.9734981
  -0.2309570   -0.3456160    0.0336190    0.9409709   -0.3362582   -0.0387832
  -0.2322950   -0.3458970    0.0356920    0.1125450   -0.2664645    0.9572514
  -0.2299640   -0.3433170    0.0339040    0.9481587   -0.3109452   -0.0656372
  -0.2312630   -0.3435400    0.0369670    0.1981668   -0.2236304    0.9543162
  -0.2323440   -0.3552780    0.0320730    0.8094141   -0.5455168    0.2173944
  -0.2318360   -0.3541530    0.0306910    0.7833605   -0.4373406   -0.4416781
  -0.2321160   -0.3521420    0.0309010    0.2886081    0.2240647   -0.9308600
  -0.2324970   -0.3501350    0.0311850    0.1538255    0.3130239   -0.9372053
  -0.2330770   -0.3481220    0.0316550   -0.0088724    0.1552692   -0.9878324
  -0.2328830   -0.3462420    0.0311730   -0.1202782   -0.2200088   -0.9680544
  -0.2323680   -0.3442190    0.0308090   -0.0894131   -0.3469749   -0.9336026
  -0.2327460   -0.3555760    0.0315900    0.1733720   -0.9176887   -0.3574768
  -0.2339030   -0.3537070    0.0328060   -0.8467303   -0.4980860   -0.1869709
  -0.2345680   -0.3512960    0.0334810   -0.9973598   -0.0697763    0.0201163
  -0.2344470   -0.3486270    0.0337970   -0.9898014    0.0545184    0.1316091
  -0.2342290   -0.3459790    0.0341440   -0.9785528   -0.0377726    0.2025035
  -0.2345930   -0.3433940    0.0344630   -0.9738102   -0.0732805    0.2152294
  -0.2340700   -0.3203040    0.0319200   -0.0438110    0.3873253   -0.9209016
  -0.2379280   -0.3204950    0.0342590   -0.8016123    0.3761932   -0.4646466
  -0.2381820   -0.3204160    0.0376930   -0.8769522    0.3600012    0.3183613
  -0.2349840   -0.3204660    0.0409310    0.0646119    0.3646103    0.9289158
  -0.2314660   -0.3204560    0.0378410    0.9494047    0.1460527    0.2780276
  -0.2308990   -0.3205010    0.0336100    0.8252020    0.2569852   -0.5029914
  -0.2355120   -0.3416580    0.0360530   -0.7039177   -0.7101568   -0.0133122
  -0.2346050   -0.3409060    0.0334920   -0.5597979   -0.7594127   -0.3315398
  -0.2330350   -0.3414420    0.0341030    0.3301824   -0.9438021    0.0147353
  -0.2352610   -0.3419010    0.0361540   -0.0692635   -0.8532412    0.5168965
  -0.2330710   -0.3408920    0.0319420    0.1783555   -0.8025377   -0.5693176
  -0.2304040   -0.3388120    0.0325720    0.6062785   -0.0989671   -0.7890703
  -0.2322600   -0.3384140    0.0352020    0.8866644   -0.1744391    0.4282489
  -0.2322220   -0.3356810    0.0325950    0.7910318    0.3255767   -0.5179464
  -0.2330950   -0.3347640    0.0356370    0.8657866    0.2118667    0.4533498
  -0.2330860   -0.3320240    0.0330110    0.8098432    0.0926733   -0.5792803
  -0.2336370   -0.3311530    0.0360730    0.9297057    0.0378500    0.3663533
  -0.2331050   -0.3278810    0.0335940    0.8574785   -0.1000621   -0.5046962
  -0.2334750   -0.3274670    0.0364360    0.9438711   -0.1461895    0.2962025
  -0.2325280   -0.3240870    0.0336250    0.8589240   -0.2429125   -0.4508249
  -0.2325120   -0.3239520    0.0372030    0.9121906   -0.3114864    0.2662414
  -0.2340820   -0.3408640    0.0321600   -0.5118197   -0.5881432   -0.6262013
  -0.2341060   -0.3373940    0.0322380   -0.4659540   -0.1083947   -0.8781443
  -0.2344180   -0.3339450    0.0324640   -0.2427997   -0.0125716   -0.9699950
  -0.2348020   -0.3305120    0.0327400   -0.1618319    0.0223777   -0.9865646
  -0.2344900   -0.3270810    0.0327080   -0.0575030    0.0111441   -0.9982831
  -0.2343290   -0.3236090    0.0323610    0.0091250   -0.0884202   -0.9960415
  -0.2359140   -0.3377490    0.0339110   -0.8348877   -0.2280374   -0.5009605
  -0.2364250   -0.3343090    0.0336340   -0.7856240   -0.0570249   -0.6160707
  -0.2365910   -0.3307730    0.0334860   -0.7781803    0.0144527   -0.6278747
  -0.2369340   -0.3273110    0.0339060   -0.7940740    0.0191981   -0.6075179
  -0.2375540   -0.3239420    0.0345930   -0.8367977   -0.0711968   -0.5428634
  -0.2369610   -0.3384790    0.0360310   -0.9520867   -0.2196970    0.2127539
  -0.2372810   -0.3348310    0.0363910   -0.9522937   -0.0573513    0.2997458
  -0.2372790   -0.3312060    0.0367880   -0.9297048   -0.0986823    0.3548390
  -0.2373750   -0.3276000    0.0373800   -0.9232245   -0.1234640    0.3638863
  -0.2377960   -0.3240120    0.0374940   -0.9114896   -0.1757640    0.3718785
  -0.2339440   -0.3396240    0.0383780    0.1137329   -0.1933562    0.9745143
  -0.2344560   -0.3357750    0.0376230    0.2188750    0.0047531    0.9757413
  -0.2349510   -0.3319030    0.0384990    0.2277611   -0.1405811    0.9635153
  -0.2348310   -0.3279510    0.0391290    0.2215962   -0.2793796    0.9342602
  -0.2345520   -0.3241850    0.0403300    0.1669886   -0.3965406    0.9027017
  -0.2310390   -0.3169670    0.0398460    0.7773839   -0.4438353    0.4457405
  -0.2315240   -0.3170630    0.0388650    0.8573751   -0.1060226   -0.5036539
  -0.2330610   -0.3125820    0.0377050    0.8812499    0.1804848   -0.4368339
  -0.2333150   -0.3129120    0.0400170    0.7871445    0.2057186    0.5814494
  -0.2339630   -0.3080850    0.0373800    0.9631759    0.1027791   -0.2484527
  -0.2352450   -0.3089190    0.0397330    0.7799667    0.1630720    0.6042014
  -0.2349350   -0.3034520    0.0376030    0.9972251    0.0567519   -0.0481796
  -0.2353700   -0.3040010    0.0397130    0.8448887    0.0320090    0.5339836
  -0.2349990   -0.2987320    0.0373660    0.9935969   -0.0644309   -0.0928107
  -0.2349670   -0.2989570    0.0398250    0.8886303   -0.0789768    0.4517731
  -0.2342940   -0.2940210    0.0376300    0.9302677   -0.3385202   -0.1414432
  -0.2343020   -0.2942180    0.0399010    0.8707242   -0.2437063    0.4271376
  -0.2321860   -0.2898570    0.0375660    0.9604858   -0.2765312   -0.0315849
  -0.2327350   -0.2897490    0.0396370    0.8594940   -0.1732658    0.4808836
  -0.2321260   -0.2853440    0.0378850    0.6295182    0.7709003   -0.0970551
  -0.2334540   -0.2850550    0.0401300    0.4854577    0.7346605    0.4739249
  -0.2329470   -0.3161590    0.0368620    0.9251534   -0.0639636   -0.3741654
  -0.2346230   -0.3121040    0.0366570    0.8527958    0.3053989   -0.4236399
  -0.2349370   -0.3075610    0.0361830    0.8353605    0.0640692   -0.5459560
  -0.2354620   -0.3030970    0.0357260    0.9192717   -0.0048000   -0.3935943
  -0.2355810   -0.2986130    0.0352830    0.9630572   -0.0382028   -0.2665733
  -0.2350680   -0.2940750    0.0349510    0.9132450   -0.3260409   -0.2442969
  -0.2325960   -0.2905410    0.0342330    0.9203703   -0.2965707   -0.2548811
  -0.2327360   -0.2860480    0.0340950    0.6041687    0.7443958   -0.2843502
  -0.2344800   -0.3200380    0.0371700    0.5260522   -0.8427350   -0.1143101
  -0.2348170   -0.3201950    0.0354620    0.3948840   -0.9186308   -0.0135714
  -0.2324190   -0.3176640    0.0332310    0.5618232   -0.3886786   -0.7302627
  -0.2347610   -0.3137390    0.0331210    0.4981058    0.2589230   -0.8275564
  -0.2364040   -0.3093340    0.0332560    0.4764773    0.0342543   -0.8785192
  -0.2361720   -0.3045310    0.0327750    0.4928528   -0.0731733   -0.8670305
  -0.2364250   -0.2997870    0.0325330    0.5299308   -0.0954926   -0.8426473
  -0.2361410   -0.2949510    0.0324280    0.6051044   -0.3070228   -0.7345650
  -0.2340840   -0.2908990    0.0312780    0.6315703   -0.2551300   -0.7321391
  -0.2337500   -0.2862210    0.0310600    0.3389172    0.7464269   -0.5726971
  -0.2353850   -0.3203330    0.0343840   -0.0889220   -0.7045487   -0.7040625
  -0.2358940   -0.3161130    0.0336780   -0.3902242   -0.1133226   -0.9137193
  -0.2365300   -0.3118510    0.0334580   -0.4904234   -0.1582965   -0.8569872
  -0.2371080   -0.3075920    0.0332420   -0.4207855   -0.1294517   -0.8978763
  -0.2377980   -0.3033070    0.0330220   -0.3671539   -0.0843145   -0.9263310
  -0.2382940   -0.2990200    0.0327110   -0.4002953   -0.0988356   -0.9110407
  -0.2376670   -0.2948480    0.0319240   -0.3072934   -0.1650348   -0.9371949
  -0.2376650   -0.2907350    0.0306950   -0.2485432   -0.1233358   -0.9607365
  -0.2374310   -0.2865000    0.0305680   -0.2449177    0.7298205   -0.6382612
  -0.2380130   -0.3193080    0.0354770   -0.7749149   -0.6276087   -0.0749287
  -0.2376220   -0.3151670    0.0354520   -0.9321444   -0.1911135   -0.3075425
  -0.2382340   -0.3111370    0.0348800   -0.9112994   -0.2339479   -0.3388240
  -0.2391620   -0.3071120    0.0344030   -0.8712837   -0.2145321   -0.4414076
  -0.2398410   -0.3030230    0.0343280   -0.8548995   -0.1168558   -0.5054617
  -0.2401550   -0.2988930    0.0342480   -0.8752454   -0.0858149   -0.4760056
  -0.2404890   -0.2947550    0.0341390   -0.8816529   -0.0888203   -0.4634643
  -0.2410250   -0.2906460    0.0340380   -0.8964369   -0.0222877   -0.4426105
  -0.2405910   -0.2865660    0.0334720   -0.5580956    0.7206197   -0.4113838
  -0.2355830   -0.3199790    0.0388170   -0.4081988   -0.7302169    0.5478659
  -0.2373210   -0.3160520    0.0381150   -0.7956044   -0.2195340    0.5646401
  -0.2380830   -0.3116400    0.0376190   -0.9330001   -0.2007711    0.2986665
  -0.2392510   -0.3073530    0.0373590   -0.9536872   -0.1914430    0.2320134
  -0.2400090   -0.3029760    0.0373330   -0.9662369   -0.1097439    0.2331147
  -0.2403950   -0.2985120    0.0373390   -0.9684400   -0.0625934    0.2412593
  -0.2408210   -0.2940680    0.0373140   -0.9589404   -0.1097554    0.2615091
  -0.2411100   -0.2896160    0.0375500   -0.9715199    0.0061714    0.2368775
  -0.2406240   -0.2852730    0.0366630   -0.5564992    0.8283616   -0.0642318
  -0.2342470   -0.3196690    0.0395540    0.0771998   -0.5690629    0.8186621
  -0.2360460   -0.3152400    0.0398140   -0.3372089   -0.1518457    0.9291034
  -0.2372610   -0.3110080    0.0395080   -0.5590934   -0.1468672    0.8159930
  -0.2381490   -0.3066980    0.0394490   -0.6746394   -0.1125422    0.7295176
  -0.2385460   -0.3023260    0.0399250   -0.6428487   -0.0612255    0.7635424
  -0.2384650   -0.2979120    0.0403530   -0.5785735   -0.0539745    0.8138424
  -0.2383580   -0.2935080    0.0407210   -0.5349012   -0.1029577    0.8386182
  -0.2390410   -0.2892140    0.0415080   -0.5241073    0.0733599    0.8484868
  -0.2385570   -0.2850160    0.0404170   -0.2475754    0.9102068    0.3320089
  -0.2343590   -0.3150960    0.0399070   -0.0319366   -0.0757173    0.9966178
  -0.2354090   -0.3109100    0.0402820   -0.0266934   -0.0044637    0.9996337
  -0.2359900   -0.3066440    0.0404840    0.0765315    0.0375782    0.9963588
  -0.2360200   -0.3022950    0.0405810    0.2358962   -0.0351467    0.9711425
  -0.2360680   -0.2979460    0.0407580    0.2517440   -0.0869181    0.9638829
  -0.2358280   -0.2936450    0.0412320    0.2287636   -0.1062972    0.9676612
  -0.2349120   -0.2894490    0.0415260    0.2981493    0.0348908    0.9538813
  -0.2358680   -0.2864270    0.0362000   -0.0296115    0.9865882   -0.1605207
  -0.2386910   -0.2867640    0.0344470    0.2368917   -0.8731474   -0.4260233
  -0.2384140   -0.2874430    0.0363490   -0.1491731   -0.9887417   -0.0117171
  -0.2419720   -0.2849840    0.0335150   -0.6987670   -0.6787796   -0.2257940
  -0.2385900   -0.2823870    0.0335130    0.0407078   -0.4841266   -0.8740505
  -0.2418810   -0.2806430    0.0320650   -0.7297570   -0.2350697   -0.6420256
  -0.2385400   -0.2780930    0.0323250   -0.0095127   -0.1411955   -0.9899360
  -0.2424050   -0.2758990    0.0325850   -0.7770860    0.0108844   -0.6293003
  -0.2391680   -0.2736670    0.0319860   -0.0228810   -0.0009506   -0.9997377
  -0.2426210   -0.2711310    0.0326230   -0.8267529   -0.0370004   -0.5613471
  -0.2398270   -0.2692010    0.0317580   -0.0045442   -0.0445317   -0.9989976
  -0.2430040   -0.2663670    0.0326080   -0.8629400   -0.0667494   -0.5008784
  -0.2400160   -0.2647660    0.0311370   -0.0408198   -0.1033716   -0.9938048
  -0.2429490   -0.2616450    0.0321460   -0.8698306   -0.0622827   -0.4894033
  -0.2397390   -0.2603480    0.0304640   -0.0555717   -0.1469673   -0.9875791
  -0.2423970   -0.2569790    0.0312640   -0.8343371   -0.0490433   -0.5490686
  -0.2392110   -0.2559480    0.0298000   -0.0294505   -0.1792644   -0.9833600
  -0.2417400   -0.2523640    0.0302940   -0.7989053   -0.0538935   -0.5990374
  -0.2388330   -0.2515870    0.0288690   -0.1047381   -0.2115125   -0.9717471
  -0.2411490   -0.2477540    0.0292370   -0.8032237   -0.0821274   -0.5899888
  -0.2385920   -0.2472950    0.0276030   -0.2704164   -0.2380103   -0.9328591
  -0.2410210   -0.2431100    0.0282720   -0.8299517   -0.1304188   -0.5423753
  -0.2382700   -0.2430980    0.0260670   -0.3731618   -0.2614413   -0.8901678
  -0.2418150   -0.2384070    0.0274530   -0.8706554   -0.1510251   -0.4681352
  -0.2382930   -0.2388320    0.0247140   -0.4103629   -0.3581557   -0.8386458
  -0.2419190   -0.2343330    0.0252240   -0.5240280    0.7340328   -0.4319613
  -0.2376320   -0.2350020    0.0224660   -0.3196475    0.5506937   -0.7710784
  -0.2383940   -0.2866060    0.0384160   -0.5579066   -0.7645187    0.3228799
  -0.2400380   -0.2825150    0.0400580   -0.8973503   -0.1384065    0.4190538
  -0.2412370   -0.2780600    0.0403890   -0.7580033   -0.0391999    0.6510718
  -0.2416130   -0.2735890    0.0393440   -0.7747727    0.0448555    0.6306467
  -0.2418650   -0.2691590    0.0378880   -0.8272864    0.0158160    0.5615577
  -0.2423780   -0.2647430    0.0366270   -0.8917629    0.0258167    0.4517658
  -0.2426860   -0.2602680    0.0355580   -0.9103595    0.0862266    0.4047352
  -0.2426050   -0.2557470    0.0345890   -0.9074302    0.1382698    0.3968022
  -0.2422330   -0.2512500    0.0335930   -0.9186795    0.1491647    0.3657565
  -0.2418460   -0.2467810    0.0324940   -0.9440866    0.1061639    0.3121373
  -0.2416980   -0.2423240    0.0312860   -0.9653940    0.0142966    0.2604036
  -0.2418440   -0.2377680    0.0305400   -0.9697581    0.0659576    0.2349868
  -0.2411620   -0.2334750    0.0296190   -0.5402480    0.8405790   -0.0394847
  -0.2381970   -0.2862110    0.0397780   -0.4421642   -0.6495584    0.6185182
  -0.2373330   -0.2819230    0.0415400   -0.6089384    0.1460094    0.7796635
  -0.2369880   -0.2773330    0.0415390   -0.2803120    0.2813411    0.9177540
  -0.2381660   -0.2729070    0.0404660   -0.0286278    0.3360985    0.9413917
  -0.2398030   -0.2686260    0.0395760    0.0264409    0.1853443    0.9823178
  -0.2411960   -0.2644560    0.0380430   -0.2459796    0.1438180    0.9585460
  -0.2417330   -0.2601160    0.0364840   -0.4189578    0.1692799    0.8920867
  -0.2415820   -0.2555890    0.0353390   -0.4482798    0.2054564    0.8699614
  -0.2411150   -0.2510390    0.0344690   -0.4441704    0.2187117    0.8688370
  -0.2406150   -0.2464830    0.0336580   -0.4658858    0.1619237    0.8699029
  -0.2402640   -0.2418810    0.0330600   -0.5309288    0.0114225    0.8473394
  -0.2403280   -0.2372180    0.0330300   -0.6368455    0.0317282    0.7703383
  -0.2405610   -0.2330610    0.0311830   -0.3859524    0.8762355    0.2885343
  -0.2348480   -0.2848240    0.0414680   -0.0937439   -0.6587330    0.7465138
  -0.2319070   -0.2812750    0.0426860    0.3691209   -0.1720446    0.9133184
  -0.2321240   -0.2767800    0.0415550    0.5506900    0.4929743    0.6735851
  -0.2357070   -0.2746710    0.0393260    0.5597763    0.5535020    0.6166734
  -0.2369530   -0.2699900    0.0382710    0.6224789    0.2620695    0.7374548
  -0.2376430   -0.2651630    0.0377320    0.5394251    0.1501293    0.8285420
  -0.2381540   -0.2605990    0.0371990    0.3544101    0.1593731    0.9214085
  -0.2381680   -0.2559490    0.0363940    0.2612934    0.1964113    0.9450653
  -0.2376320   -0.2512850    0.0354440    0.2831288    0.1389419    0.9489643
  -0.2366840   -0.2466710    0.0345990    0.2730357    0.0324967    0.9614549
  -0.2362020   -0.2420150    0.0344440    0.1968327   -0.0882875    0.9764539
  -0.2362380   -0.2372870    0.0351920    0.1327089   -0.0118380    0.9910844
  -0.2357520   -0.2326480    0.0348680    0.2231293    0.8902145    0.3971541
  -0.2351160   -0.2857100    0.0404750    0.2949279   -0.8552918    0.4260206
  -0.2316880   -0.2824780    0.0398460    0.8950374   -0.4235137    0.1398009
  -0.2310050   -0.2783560    0.0388760    0.9790608    0.1696349   -0.1125339
  -0.2337220   -0.2745540    0.0373330    0.9072948    0.4194933    0.0290097
  -0.2359570   -0.2705110    0.0372170    0.9006849    0.2559723    0.3510626
  -0.2366450   -0.2660060    0.0368230    0.8878329    0.1231978    0.4433679
  -0.2366690   -0.2613250    0.0360900    0.8695298    0.1026543    0.4830941
  -0.2367440   -0.2567240    0.0350450    0.8715066    0.0737864    0.4848008
  -0.2365090   -0.2522520    0.0339830    0.8736579   -0.0328637    0.4854296
  -0.2353410   -0.2477940    0.0333070    0.8645640   -0.1109385    0.4901242
  -0.2343530   -0.2432790    0.0328430    0.8420678   -0.2082974    0.4975279
  -0.2330740   -0.2387960    0.0327430    0.8512454   -0.1127737    0.5125070
  -0.2327740   -0.2343670    0.0315920    0.6454755    0.7457794    0.1648466
  -0.2326540   -0.2844950    0.0350690    0.8754293   -0.4824557   -0.0293273
  -0.2321790   -0.2800040    0.0350800    0.9579002    0.1047094   -0.2673258
  -0.2339850   -0.2753620    0.0344630    0.9118460    0.3327058   -0.2405073
  -0.2353500   -0.2709280    0.0339440    0.9399374    0.2063097   -0.2719449
  -0.2359670   -0.2662420    0.0340060    0.9620033    0.0251856   -0.2718736
  -0.2361970   -0.2615270    0.0336050    0.9810614   -0.0500468   -0.1871197
  -0.2361340   -0.2569430    0.0324190    0.9879829   -0.1050905   -0.1133395
  -0.2355530   -0.2524380    0.0311040    0.9920039   -0.1134155   -0.0553641
  -0.2347910   -0.2478420    0.0302150    0.9782926   -0.1623800   -0.1287489
  -0.2338510   -0.2433080    0.0292750    0.8829866   -0.4190331   -0.2115324
  -0.2319100   -0.2394920    0.0271930    0.8623210   -0.4803895   -0.1600889
  -0.2314620   -0.2353280    0.0255380    0.7735020    0.6141860   -0.1564292
  -0.2357580   -0.2870260    0.0372800    0.2246468   -0.9715041    0.0755887
  -0.2354890   -0.2867300    0.0363390    0.2269052   -0.8900617   -0.3953532
  -0.2333910   -0.2840830    0.0328910    0.6477116   -0.3789690   -0.6609479
  -0.2328850   -0.2794170    0.0320240    0.5429518   -0.0435448   -0.8386341
  -0.2346750   -0.2748900    0.0327910    0.6103735    0.2090741   -0.7640237
  -0.2365860   -0.2703620    0.0328370    0.5596947    0.0608595   -0.8264611
  -0.2374690   -0.2656800    0.0319690    0.5162756   -0.1009785   -0.8504486
  -0.2372180   -0.2608710    0.0315760    0.5975934   -0.1659143   -0.7844454
  -0.2366110   -0.2561460    0.0307650    0.6618182   -0.2094498   -0.7198108
  -0.2364010   -0.2516510    0.0290270    0.6258808   -0.2226638   -0.7474584
  -0.2367540   -0.2472340    0.0271940    0.4600751   -0.2803340   -0.8424629
  -0.2364310   -0.2425120    0.0256030    0.2748914   -0.4539548   -0.8475611
  -0.2337650   -0.2391630    0.0235610    0.2283848   -0.5893213   -0.7749457
  -0.2311500   -0.2353100    0.0223560    0.3343962    0.5655621   -0.7538691
  -0.2365520   -0.2350080    0.0281080    0.1292989    0.9752262   -0.1794872
  -0.2367410   -0.2864820    0.0379810   -0.0551680   -0.9780104    0.2011272
  -0.2375800   -0.2237690   -0.0186970   -0.9271763    0.0066623    0.3745661
  -0.2365070   -0.2196170   -0.0189540   -0.8262902    0.5216879    0.2123350
  -0.2344580   -0.2217630   -0.0158900   -0.5183653    0.5247556    0.6752251
  -0.2356350   -0.2253180   -0.0148120   -0.7069323   -0.1850268    0.6826506
  -0.2309010   -0.2210940   -0.0152660   -0.1112773    0.6288742    0.7695028
  -0.2323100   -0.2252990   -0.0119640   -0.3871322   -0.1272269    0.9132042
  -0.2284050   -0.2246390   -0.0108370    0.0972362   -0.0471809    0.9941424
  -0.2279340   -0.2207550   -0.0159550    0.3638899    0.5825279    0.7268050
  -0.2251610   -0.2238310   -0.0139070    0.7758792    0.1749105    0.6061500
  -0.2247600   -0.2216040   -0.0182810    0.8685048    0.4334249    0.2405042
  -0.2265500   -0.2183880   -0.0186690    0.5599489    0.7582464    0.3339456
  -0.2312380   -0.2167080   -0.0173590   -0.2023719    0.9370121    0.2846997
  -0.2328270   -0.2176810   -0.0216750   -0.1900957    0.7469963   -0.6370715
  -0.2274650   -0.2188840   -0.0225880    0.4795460    0.7151113   -0.5085779
  -0.2325910   -0.2220540   -0.0257580   -0.2179149    0.5660761   -0.7950289
  -0.2280080   -0.2229190   -0.0257580    0.3427431    0.6133083   -0.7116039
  -0.2313710   -0.2277860   -0.0303020   -0.3512020    0.5457665   -0.7607865
  -0.2278050   -0.2271130   -0.0296790    0.2333702    0.6399443   -0.7321268
  -0.2296590   -0.2365380   -0.0373640   -0.3649877    0.6012811   -0.7108059
  -0.2263060   -0.2363990   -0.0377130    0.1890919    0.7002044   -0.6884462
  -0.2366810   -0.2228340   -0.0229620   -0.7925626    0.3086886   -0.5258857
  -0.2356490   -0.2256010   -0.0248500   -0.7558315    0.2218445   -0.6160387
  -0.2347590   -0.2300450   -0.0282860   -0.8298273    0.2316959   -0.5076452
  -0.2340680   -0.2385680   -0.0347740   -0.8367197    0.2987272   -0.4589795
  -0.2373740   -0.2259520   -0.0211020   -0.8963390   -0.4398327   -0.0558895
  -0.2335370   -0.2402910   -0.0333880   -0.8971685   -0.3592610    0.2569439
  -0.2349120   -0.2269650   -0.0176880   -0.4642611   -0.8437409    0.2693750
  -0.2341480   -0.2280610   -0.0208100   -0.4674731   -0.8003312    0.3754183
  -0.2364400   -0.2270590   -0.0230010   -0.8937864   -0.4454476   -0.0521761
  -0.2329000   -0.2324590   -0.0253440   -0.4544641   -0.6615083    0.5965477
  -0.2351130   -0.2313760   -0.0268500   -0.9140791   -0.3763761    0.1509984
  -0.2316170   -0.2408290   -0.0325780   -0.3820101   -0.6367583    0.6697814
  -0.2290360   -0.2410960   -0.0319250   -0.0712620   -0.6637738    0.7445308
  -0.2302420   -0.2326380   -0.0239990   -0.1201192   -0.7303010    0.6724818
  -0.2309100   -0.2293980   -0.0202580   -0.1549935   -0.8785426    0.4518184
  -0.2317180   -0.2274030   -0.0151190   -0.2054685   -0.8953649    0.3951005
  -0.2283530   -0.2277720   -0.0148790    0.2022151   -0.8568288    0.4742926
  -0.2257980   -0.2406330   -0.0323010    0.5854962   -0.4864401    0.6485138
  -0.2230920   -0.2372830   -0.0361500    0.9440470    0.3127788   -0.1046166
  -0.2273360   -0.2328990   -0.0247840    0.5971852   -0.5753186    0.5589082
  -0.2244680   -0.2283190   -0.0281020    0.9495077    0.2312596   -0.2120241
  -0.2271720   -0.2294590   -0.0202650    0.5407062   -0.7590144    0.3626761
  -0.2250130   -0.2253990   -0.0243340    0.9462397    0.1447856   -0.2892536
