NORM_ASCII
845 1690
  -0.0500993   -0.0461133    0.0811740    0.5086528    0.2753771   -0.8157449
  -0.0419409   -0.0477796    0.0852233    0.7110925   -0.0137814   -0.7029634
  -0.0431357   -0.0465360    0.0848114    0.4846943    0.2959808   -0.8230838
  -0.0444447   -0.0518606    0.0848975    0.6313800   -0.5942021   -0.4982802
  -0.0570114   -0.0460858    0.0952754   -0.0507352   -0.3597029    0.9316865
  -0.0620159   -0.0434786    0.0951301   -0.1089834   -0.3026380    0.9468542
  -0.0742013   -0.0435039    0.0940936   -0.0418764   -0.2828471    0.9582504
  -0.0781205   -0.0434012    0.0939855   -0.1222271   -0.2551232    0.9591521
  -0.0850608   -0.0432314    0.0918683   -0.4412072    0.0390636    0.8965547
  -0.0895739   -0.0450456    0.0885555   -0.4599954    0.1435522    0.8762403
  -0.0666326   -0.0424219    0.0951962   -0.0623442   -0.4644283    0.8834136
  -0.0486643   -0.0550495    0.0897266    0.3200482   -0.7854973    0.5296821
  -0.0519126   -0.0492074    0.0938667    0.0171818   -0.4644278    0.8854443
  -0.1057908   -0.0356101    0.0687934   -0.7379910   -0.2677053    0.6194377
  -0.1100660   -0.0367808    0.0660051   -0.6673157   -0.0047646    0.7447598
  -0.1153078   -0.0584361    0.0659712   -0.8653951   -0.0076645    0.5010315
  -0.1129255   -0.0436186    0.0650291   -0.9464071    0.2653606    0.1841122
  -0.1120151   -0.0653358    0.0684831   -0.7276355   -0.2204275    0.6495832
  -0.0988866   -0.0364243    0.0804037   -0.7770934    0.0253027    0.6288765
  -0.1043824   -0.0811974    0.0676282   -0.5716680   -0.3700892    0.7322771
  -0.1069963   -0.0805178    0.0654189   -0.5827804   -0.2725441    0.7655630
  -0.1052883   -0.0899295    0.0642178    0.0379828   -0.1618336    0.9860868
  -0.0655950   -0.0925726    0.0428383   -0.4011184   -0.6502973   -0.6451492
  -0.0642958   -0.0935713    0.0445159   -0.1632490   -0.9537376   -0.2524567
  -0.0694554   -0.0880516    0.0421744   -0.4172335   -0.2286254   -0.8795719
  -0.0706405   -0.0817208    0.0428403   -0.3513214    0.0073780   -0.9362259
  -0.0725076   -0.0753931    0.0435745   -0.2813982    0.0924537   -0.9551269
  -0.0797177   -0.0665612    0.0469510   -0.0770327    0.2839464   -0.9557408
  -0.0748052   -0.0700391    0.0449357   -0.1933462    0.2536749   -0.9477691
  -0.1052274   -0.1014565    0.0638582    0.5955842   -0.2230626    0.7717011
  -0.1058035   -0.1052471    0.0618771    0.6604826   -0.5482474    0.5130180
  -0.1125586   -0.0842890    0.0421956   -0.4849386    0.0763379   -0.8712101
  -0.1154407   -0.0812843    0.0443901   -0.1300244    0.1980255   -0.9715346
  -0.1143377   -0.0921932    0.0433141   -0.6122697    0.0860453   -0.7859529
  -0.1257462   -0.1085060    0.0486259   -0.6641210    0.3064727   -0.6819221
  -0.1034177   -0.1056256    0.0345972   -0.0913579    0.3540816   -0.9307416
  -0.1177471   -0.0622834    0.0514228   -0.3422341    0.6836951   -0.6445439
  -0.1137568   -0.0561406    0.0523699   -0.5952313    0.4599921   -0.6588680
  -0.1067131   -0.0400404    0.0579628   -0.4238915    0.2471137   -0.8713500
  -0.1190800   -0.0749086    0.0448808    0.2243848    0.2115130   -0.9512695
  -0.0898535   -0.0412755    0.0520809   -0.0471191    0.2259419   -0.9730005
  -0.1007621   -0.1070007    0.0352345    0.6806287    0.2516238   -0.6880625
  -0.0987262   -0.1098106    0.0383074    0.9896215   -0.0759661    0.1219771
  -0.1106322   -0.1222135    0.0439203    0.7858253   -0.4796385    0.3904171
  -0.1163574   -0.1192724    0.0608553    0.6533707   -0.4649827    0.5974093
  -0.1004498   -0.1109473    0.0407651    0.7573489   -0.4143349    0.5047269
  -0.1078422   -0.1193207    0.0422787    0.6734653   -0.5569136    0.4860985
  -0.1104960   -0.1099493    0.0616924    0.5102785   -0.5182577    0.6863125
  -0.0541883   -0.0936801    0.0363626    0.6312229   -0.7558479    0.1739300
  -0.0631995   -0.0928043    0.0403946   -0.6685939   -0.7098330   -0.2216288
  -0.0629747   -0.0939682    0.0324424   -0.2855150   -0.8257850    0.4863747
  -0.0529996   -0.0921069    0.0367381    0.9236603   -0.3474106    0.1617331
  -0.0503748   -0.0905200    0.0304460    0.9085072    0.1856649    0.3743570
  -0.0554982   -0.0809537    0.0342749    0.6243669    0.5871414   -0.5151999
  -0.0818151   -0.0289109    0.0897768   -0.4777309    0.0603146    0.8764333
  -0.1004815   -0.0235829    0.0797954   -0.5028982   -0.0371975    0.8635449
  -0.0911483   -0.0262469    0.0847861   -0.4481641    0.0950919    0.8888793
  -0.0580575   -0.0831777    0.0322847   -0.0889068    0.6451552   -0.7588612
  -0.0608513   -0.0818353    0.0347438   -0.4204916    0.5030270   -0.7550832
  -0.0621644   -0.0860407    0.0317267   -0.5469554    0.6391348   -0.5406907
  -0.0652879   -0.0517885    0.0505411    0.1724540    0.4191828   -0.8913728
  -0.0663750   -0.0655630    0.0448619   -0.1762341    0.4090959   -0.8953111
  -0.0740921   -0.0397489    0.0524891    0.3019134    0.4537906   -0.8384046
  -0.0798484   -0.0353187    0.0538857    0.1080206    0.3837361   -0.9171031
  -0.0843567   -0.0311602    0.0549813    0.1437964    0.3581665   -0.9225179
  -0.0804088   -0.0089867    0.0757739    0.5988257    0.3750712   -0.7076224
  -0.0682159   -0.0317820    0.0748409    0.6982648    0.4258392   -0.5754018
  -0.0403710   -0.0499344    0.0883557    0.7933601   -0.5912801   -0.1448017
  -0.0588500   -0.0324637    0.0848349    0.5349893    0.3531013   -0.7675324
  -0.0396497   -0.0447274    0.0894347    0.8801646    0.0840192   -0.4671735
  -0.0399226   -0.0412174    0.0904047    0.7981822    0.2393216   -0.5528385
  -0.0525454   -0.0445543    0.0959126   -0.0062413   -0.4233686    0.9059360
  -0.0430644   -0.0364994    0.0998729   -0.0360915   -0.3737604    0.9268228
  -0.0721087   -0.0409901    0.0956511   -0.0423265   -0.5755101    0.8166986
  -0.0763618   -0.0405839    0.0958958   -0.2027993   -0.2694762    0.9414112
  -0.0709665   -0.0293744    0.0943613   -0.3084144    0.0309520    0.9507484
  -0.0637979   -0.0400043    0.0971296   -0.0810470   -0.3520510    0.9324653
  -0.0468320   -0.0487150    0.0942791   -0.0106980   -0.4828879    0.8756168
  -0.0422707   -0.0503134    0.0932706    0.2652607   -0.6755587    0.6879370
  -0.1137015   -0.0312744    0.0659214   -0.6553377   -0.7242981    0.2143006
  -0.1114591   -0.0313277    0.0691497   -0.4597565   -0.7215301    0.5177048
  -0.1086391   -0.0272305    0.0744686   -0.4408760   -0.5836864    0.6818640
  -0.1109079   -0.0371032    0.0649737   -0.9957351   -0.0830056   -0.0402710
  -0.1158332   -0.0635638    0.0639078   -0.8417200    0.1691767    0.5127248
  -0.1165484   -0.0569024    0.0619268   -0.9708609    0.2167339    0.1022523
  -0.1094352   -0.0386070    0.0607419   -0.8117782    0.3597009   -0.4600341
  -0.1090451   -0.0367661    0.0610712   -0.7949301    0.1237160   -0.5939533
  -0.1179547   -0.0787857    0.0588852   -0.5598116   -0.0105756    0.8285524
  -0.1168949   -0.0701655    0.0628830   -0.5630779   -0.2342031    0.7925227
  -0.1161918   -0.0668172    0.0638699   -0.6533193   -0.0157722    0.7569182
  -0.1086764   -0.0846722    0.0640938   -0.1848497    0.3099541    0.9326087
  -0.1069584   -0.0914895    0.0651439    0.4084516    0.0442467    0.9117069
  -0.1127796   -0.0899044    0.0671347    0.2815213    0.2116616    0.9359194
  -0.0653328   -0.0857659    0.0387718   -0.8454062   -0.2566487   -0.4684227
  -0.0691660   -0.0770322    0.0420878   -0.5174101    0.0229254   -0.8554304
  -0.0713929   -0.0715533    0.0436315   -0.3508289    0.1962173   -0.9156516
  -0.0781116   -0.0637239    0.0476808   -0.0647505    0.3042805   -0.9503793
  -0.0731726   -0.0674705    0.0454536   -0.1972864    0.3283797   -0.9237125
  -0.1096572   -0.1033423    0.0650688    0.2936499   -0.3975695    0.8693148
  -0.1136683   -0.0963924    0.0680282    0.1722455   -0.1377290    0.9753780
  -0.1159055   -0.0832440    0.0446892   -0.3756337   -0.2734701   -0.8855018
  -0.1172566   -0.0849194    0.0462069   -0.6186028   -0.2803430   -0.7339880
  -0.1174664   -0.0872112    0.0470478   -0.7735972   -0.1271052   -0.6207992
  -0.1193556   -0.0816325    0.0453594    0.0638372   -0.0957791   -0.9933535
  -0.1192586   -0.0963256    0.0479705   -0.7722056    0.2460619   -0.5857918
  -0.1296767   -0.1067925    0.0569866   -0.6844791    0.5898306   -0.4284720
  -0.1235787   -0.0997511    0.0517890   -0.7968603    0.3514088   -0.4914525
  -0.1231303   -0.1134091    0.0455919   -0.5363556    0.3891729   -0.7489106
  -0.1279388   -0.1137869    0.0484370   -0.3403304    0.5884742   -0.7333985
  -0.1038260   -0.1081957    0.0331885   -0.0079870    0.5173153   -0.8557576
  -0.1238203   -0.0672480    0.0464249   -0.0478697    0.7137391   -0.6987740
  -0.1247097   -0.0667228    0.0506426   -0.6617512    0.7298472    0.1714886
  -0.1188285   -0.0624331    0.0559276   -0.8594213    0.5112044    0.0080610
  -0.1158047   -0.0554173    0.0577585   -0.8913308    0.4050629   -0.2036010
  -0.1057834   -0.0342944    0.0581826   -0.5490751   -0.0543190   -0.8340060
  -0.0976903   -0.0328326    0.0551806   -0.2446513    0.0661263   -0.9673536
  -0.1255817   -0.0726089    0.0435210   -0.1516959    0.4202209   -0.8946523
  -0.1268367   -0.0758100    0.0412639   -0.1770031    0.2146476   -0.9605188
  -0.1238044   -0.0807385    0.0429496    0.1510452   -0.5090741   -0.8473658
  -0.0772877   -0.0442965    0.0519469   -0.0352017    0.2062941   -0.9778566
  -0.0766817   -0.0609601    0.0485440   -0.0638845    0.2533901   -0.9652524
  -0.0999071   -0.1138899    0.0311501    0.5622594    0.6411089   -0.5223444
  -0.0965332   -0.1170326    0.0340142    0.8422342    0.2114987    0.4958930
  -0.0990677   -0.1170652    0.0357222    0.5668099   -0.5054514    0.6505731
  -0.1117752   -0.1274017    0.0406759    0.7802816   -0.4315009    0.4527335
  -0.1086336   -0.1237434    0.0387568    0.7469209   -0.4285518    0.5083822
  -0.1144325   -0.1331270    0.0390245    0.5890923   -0.5498405    0.5921534
  -0.1235434   -0.1298080    0.0569712    0.2797815   -0.8038457    0.5249328
  -0.1230818   -0.1259067    0.0616386    0.0124626   -0.6277221    0.7783377
  -0.1244135   -0.1212606    0.0640843   -0.0022645   -0.3572314    0.9340132
  -0.1187000   -0.1165808    0.0637322    0.2518385   -0.1165655    0.9607236
  -0.1150442   -0.1102860    0.0626531    0.1317410   -0.2885479    0.9483588
  -0.1042135   -0.1228430    0.0336357    0.6224990   -0.4896672    0.6105089
  -0.1033149   -0.1194409    0.0365818    0.5240661   -0.6641164    0.5332018
  -0.0515037   -0.0971523    0.0278782    0.2467779   -0.7053663    0.6644991
  -0.0514849   -0.0930786    0.0312803    0.7360919   -0.4120944    0.5369794
  -0.0635466   -0.0899699    0.0359309   -0.8545445   -0.4392525    0.2771479
  -0.0565755   -0.1006955    0.0243709    0.0984044   -0.7122441    0.6950000
  -0.0646470   -0.0975918    0.0286516    0.0599270   -0.6326241    0.7721370
  -0.0657767   -0.0968013    0.0289016   -0.3120322   -0.5106379    0.8011772
  -0.0640362   -0.0921363    0.0334489   -0.5588995   -0.5121807    0.6521520
  -0.0479606   -0.0953621    0.0279801    0.4409762   -0.3246709    0.8367370
  -0.0466306   -0.0937152    0.0269493    0.7372476    0.4110161    0.5362199
  -0.0513072   -0.0884185    0.0284485    0.5392844    0.7512311   -0.3805578
  -0.0621062   -0.0028890    0.1034295   -0.4582578   -0.1982476    0.8664281
  -0.0702143    0.0017942    0.0985937   -0.5970699   -0.1254999    0.7923114
  -0.0916973    0.0160949    0.0826719   -0.5771869    0.0028749    0.8166070
  -0.1082587   -0.0054034    0.0726943   -0.4907184    0.1529283    0.8577927
  -0.1265261   -0.0262990    0.0700970   -0.3535316   -0.2582865    0.8990570
  -0.0550502   -0.0892524    0.0270812   -0.0171380    0.7514311   -0.6595890
  -0.0592456   -0.0858788    0.0303310   -0.2321744    0.6308540   -0.7403501
  -0.0649226   -0.0829923    0.0357952   -0.9524939    0.0826749   -0.2931217
  -0.0664939   -0.0954474    0.0292599   -0.8104359   -0.0894718    0.5789546
  -0.0670977   -0.0752592    0.0405550   -0.4777598    0.2576053   -0.8398721
  -0.0661436   -0.0709826    0.0423718   -0.2768682    0.4055177   -0.8711483
  -0.0636412   -0.0890881    0.0312729   -0.9097297    0.3973101    0.1205679
  -0.0592488   -0.0941986    0.0233504   -0.3514534    0.7252804   -0.5919872
  -0.0645111   -0.0892877    0.0299827   -0.8606261    0.5074860   -0.0421977
  -0.0705586   -0.0632707    0.0465555   -0.1488917    0.3423294   -0.9277078
  -0.0686839   -0.0670047    0.0446444   -0.1676787    0.3988868   -0.9015393
  -0.1040000   -0.0287159    0.0566246   -0.0497597   -0.2572386   -0.9650659
  -0.0953062   -0.0198592    0.0547540    0.4832529    0.1218993   -0.8669528
  -0.0675713   -0.0072258    0.0849376    0.5540013    0.2561975   -0.7921145
  -0.0854210    0.0090086    0.0762389    0.6923006    0.1218645   -0.7112447
  -0.0705346    0.0181817    0.0909499    0.6291168    0.1450337   -0.7636604
  -0.0387668   -0.0454262    0.0961834    0.6011612   -0.5096065    0.6155537
  -0.0378350   -0.0452289    0.0934682    0.9899773   -0.1094839   -0.0892092
  -0.0327456   -0.0096822    0.1083918    0.7217549    0.1606559   -0.6732456
  -0.0328230   -0.0229445    0.1036920    0.7851140   -0.0693054   -0.6154614
  -0.0335729   -0.0265039    0.1048914    0.6162254   -0.7535256   -0.2290532
  -0.0360954   -0.0299484    0.0997665    0.9328196   -0.2984437   -0.2019380
  -0.0374569   -0.0329784    0.0968772    0.9497277   -0.1136525   -0.2917196
  -0.0445024   -0.0036077    0.0996720    0.5952813    0.2481058   -0.7642537
  -0.0376234   -0.0329974    0.0980302    0.9068044   -0.3852273    0.1711889
  -0.0379345   -0.0322092    0.0997779    0.6801833   -0.4253544    0.5970128
  -0.0415549   -0.0316597    0.1024506    0.1197175   -0.6580059    0.7434352
  -0.0520173   -0.0154276    0.1041448   -0.4927384   -0.3312525    0.8046618
  -0.1165996   -0.0290082    0.0682111   -0.1974363   -0.7873975    0.5839726
  -0.1178728   -0.0295072    0.0669633   -0.1379776   -0.9766277    0.1648044
  -0.1097133   -0.0335173    0.0613311   -0.7381030   -0.2664090   -0.6198630
  -0.1116752   -0.0308782    0.0619111   -0.4807723   -0.7657236   -0.4272299
  -0.1236389   -0.0693573    0.0545934   -0.8156882    0.3265425    0.4775173
  -0.1195186   -0.0682034    0.0612734   -0.7588112    0.1358403    0.6369875
  -0.1194160   -0.0898935    0.0639584   -0.6417501    0.5248021    0.5592312
  -0.1212526   -0.0781192    0.0570013   -0.7414895   -0.1494173    0.6541160
  -0.1203434   -0.0844824    0.0586314   -0.7861947    0.1727155    0.5933525
  -0.1198592   -0.0711825    0.0609149   -0.6341388   -0.1498084    0.7585680
  -0.1166304   -0.0914990    0.0683017   -0.1639880    0.2928377    0.9419947
  -0.0643037   -0.0888125    0.0358573   -0.8880524   -0.3534889    0.2939533
  -0.0702344   -0.0684297    0.0443333   -0.2372510    0.3584751   -0.9028884
  -0.1244352   -0.0993879    0.0658588   -0.1051618   -0.2692081    0.9573233
  -0.1216087   -0.0823395    0.0450486    0.0190992   -0.4825347   -0.8756686
  -0.1204576   -0.0839915    0.0481516   -0.4459350   -0.7179365   -0.5345178
  -0.1231190   -0.0824293    0.0454080   -0.1985225   -0.8631095   -0.4643606
  -0.1199273   -0.0859462    0.0493064   -0.6812663   -0.4217272   -0.5983497
  -0.1221731   -0.0854074    0.0519016   -0.8598419   -0.4825560   -0.1667684
  -0.1220129   -0.0895391    0.0574025   -0.9712525    0.2327876   -0.0497853
  -0.1213914   -0.0956308    0.0509582   -0.8322363    0.2524902   -0.4935903
  -0.1336316   -0.1092067    0.0571732   -0.8702441    0.4629455   -0.1683944
  -0.1298150   -0.1040684    0.0639164   -0.5859933    0.2803477    0.7602743
  -0.1270673   -0.0991686    0.0656849   -0.6602022    0.2615872    0.7040634
  -0.1303897   -0.1158293    0.0454539   -0.6443435    0.3638169   -0.6726506
  -0.1234046   -0.1231945    0.0388845   -0.5615123    0.3533483   -0.7482306
  -0.1031978   -0.1142079    0.0293567   -0.3140151    0.5455551   -0.7770226
  -0.1268265   -0.0682578    0.0461233   -0.3362055    0.7974155   -0.5010931
  -0.1273181   -0.0680727    0.0481502   -0.7201006    0.6380361    0.2726997
  -0.1270911   -0.0704501    0.0498290   -0.7748781    0.3216785    0.5441386
  -0.1073090   -0.0307557    0.0581405   -0.4389660   -0.3560385   -0.8249518
  -0.1292211   -0.0698316    0.0461249   -0.7466196    0.5813845   -0.3233440
  -0.1297543   -0.0713165    0.0457264   -0.9257597    0.1387103   -0.3517504
  -0.1294627   -0.0733295    0.0455796   -0.8624781    0.1682610   -0.4773047
  -0.1283240   -0.0767288    0.0424662   -0.7585993    0.0776266   -0.6469167
  -0.1273912   -0.0785488    0.0418889   -0.4523129   -0.3426629   -0.8234046
  -0.1272656   -0.0803154    0.0432038   -0.4950640   -0.7606628   -0.4198853
  -0.0957624   -0.1173717    0.0288815    0.4032946    0.8954645   -0.1884060
  -0.0998954   -0.1179707    0.0255230    0.0422609    0.6807110   -0.7313321
  -0.0973329   -0.1179038    0.0340461    0.3372406   -0.5607929    0.7561614
  -0.0950174   -0.1183309    0.0328188    0.5808989   -0.0651746    0.8113622
  -0.1007379   -0.1208769    0.0329767    0.3851120   -0.5984634    0.7025171
  -0.1073478   -0.1261092    0.0357094    0.7111461   -0.3578991    0.6051276
  -0.1095510   -0.1399940    0.0294216   -0.0726178   -0.9566093    0.2821794
  -0.1064084   -0.1368194    0.0310585    0.5288723   -0.3891480    0.7542267
  -0.1032222   -0.1281404    0.0304378    0.5852821   -0.2449581    0.7729427
  -0.1057663   -0.1277918    0.0330215    0.6695127   -0.3368994    0.6620056
  -0.1171596   -0.1374758    0.0344969   -0.3099846   -0.9114241   -0.2705840
  -0.1217555   -0.1372341    0.0411908   -0.0116756   -0.9620058    0.2727791
  -0.1261196   -0.1347569    0.0476530   -0.3871972   -0.8502193    0.3566586
  -0.1072000   -0.1334918    0.0326909    0.6538159   -0.1909867    0.7321535
  -0.1269254   -0.1287593    0.0571895   -0.4207988   -0.7065690    0.5689364
  -0.1315641   -0.1215576    0.0600062   -0.6795548   -0.4079376    0.6097476
  -0.1292147   -0.1163439    0.0637153   -0.3639938   -0.1170101    0.9240223
  -0.1023374   -0.1247372    0.0310882    0.4970553   -0.4132975    0.7629687
  -0.0492585   -0.0991585    0.0254129    0.0533669   -0.6583965    0.7507770
  -0.0465408   -0.0981292    0.0255385    0.1373792   -0.4815980    0.8655578
  -0.0541701   -0.1048102    0.0198621    0.1359441   -0.7092755    0.6916990
  -0.0562003   -0.1060743    0.0192836    0.1771644   -0.6934873    0.6983467
  -0.0631519   -0.1065493    0.0201643    0.2192441   -0.6830167    0.6967210
  -0.0521148   -0.1018015    0.0228306    0.0481946   -0.7207260    0.6915427
  -0.0681802   -0.1057137    0.0243284    0.2511658   -0.5891265    0.7680141
  -0.0646118   -0.0913851    0.0334224   -0.7868491   -0.3102555    0.5334885
  -0.0428763   -0.0980254    0.0253270    0.4526249   -0.2322417    0.8609265
  -0.0472170   -0.0929428    0.0260477    0.6491714    0.7385511   -0.1819854
  -0.0422858   -0.0976676    0.0248131    0.7943218    0.5396004    0.2790774
  -0.0495413   -0.0918065    0.0251573    0.3770434    0.8549372   -0.3562593
  -0.0494224    0.0118026    0.1148082   -0.5913922   -0.3499936    0.7264707
  -0.0598409    0.0127889    0.1092908   -0.5695282   -0.2839691    0.7713619
  -0.0692759    0.0149000    0.1025768   -0.7002254   -0.1114642    0.7051668
  -0.1243001    0.0125373    0.0594917   -0.5203507    0.1071241    0.8472069
  -0.0904963    0.0402356    0.0838902   -0.6780856   -0.0468544    0.7334880
  -0.1227301   -0.0287813    0.0688847    0.0211854   -0.7048140    0.7090757
  -0.1458263   -0.0263117    0.0586787   -0.5047678   -0.0878516    0.8587733
  -0.1442229   -0.0312263    0.0568982   -0.3720300   -0.7679890    0.5213315
  -0.1274018   -0.0303243    0.0672321   -0.0439052   -0.9258423    0.3753510
  -0.1310569   -0.0051158    0.0603699   -0.4982954    0.2297470    0.8360131
  -0.0499901   -0.0955599    0.0135673   -0.1853716    0.9271496   -0.3256241
  -0.0702745   -0.1037001    0.0259209   -0.7555253   -0.0455285    0.6535356
  -0.0687480   -0.1032621    0.0201344   -0.6784233    0.6107597   -0.4083067
  -0.0587247   -0.0992879    0.0126506   -0.5410439    0.7623646   -0.3550658
  -0.0529283   -0.0967982    0.0130860   -0.3364442    0.8827556   -0.3279448
  -0.1202703   -0.0292140    0.0563858    0.1182332   -0.9095684   -0.3983796
  -0.1137224   -0.0237025    0.0531721    0.0124763    0.0257820   -0.9995897
  -0.1096244   -0.0298852    0.0584377   -0.1952129   -0.8657937   -0.4607528
  -0.1086790   -0.0160510    0.0550265   -0.1868195    0.0798618   -0.9791428
  -0.1014859   -0.0062012    0.0524116   -0.0140235    0.1017290   -0.9947133
  -0.0964550   -0.0100179    0.0560253    0.7760529    0.1559613   -0.6110794
  -0.0960600   -0.0005407    0.0610555    0.8491229    0.1332215   -0.5111187
  -0.0566396    0.0257350    0.1025178    0.5384502    0.1680258   -0.8257352
  -0.0930669    0.0164806    0.0701304    0.8039214    0.1471166   -0.5762526
  -0.0934128    0.0321873    0.0687819    0.6543502   -0.1040829   -0.7489944
  -0.0664808    0.0394686    0.0953393    0.7029304   -0.0491586   -0.7095578
  -0.0618170    0.0361565    0.1007841    0.6244521    0.0085081   -0.7810168
  -0.0242787   -0.0136046    0.1182424    0.9817686   -0.0406035   -0.1856927
  -0.0277375   -0.0233795    0.1156061    0.8803101   -0.4642968   -0.0973784
  -0.0295883    0.0088702    0.1193790    0.8022490    0.3145991   -0.5073697
  -0.0344635   -0.0263988    0.1056362    0.1397116   -0.9173677    0.3727160
  -0.0323397   -0.0257729    0.1104281   -0.0667307   -0.9746965    0.2133396
  -0.0299702   -0.0246304    0.1149438    0.0982083   -0.9015620    0.4213562
  -0.0363558   -0.0299880    0.1007392    0.6941881   -0.6545597    0.2994236
  -0.0496769    0.0259159    0.1072209    0.6508021    0.1793513   -0.7377600
  -0.0411502    0.0312524    0.1176193    0.7595888    0.2392188   -0.6048134
  -0.0367890   -0.0295955    0.1017642    0.4847883   -0.7236199    0.4912784
  -0.0362352   -0.0230011    0.1111000   -0.6406586   -0.6193477    0.4538337
  -0.0409384   -0.0066619    0.1153803   -0.6720025   -0.1839896    0.7173287
  -0.0350582   -0.0193729    0.1186724   -0.7556311   -0.3262109    0.5679859
  -0.0398182    0.0071815    0.1207216   -0.6528124   -0.3354493    0.6791979
  -0.1185716   -0.0286862    0.0607630   -0.0527646   -0.9955974   -0.0774703
  -0.1227873   -0.0718084    0.0571337   -0.8110393   -0.0390636    0.5836859
  -0.1218359   -0.0835718    0.0564397   -0.9430760    0.0269108    0.3314867
  -0.1225759   -0.0814156    0.0529908   -0.9209853   -0.1466609    0.3609386
  -0.1253597   -0.0812590    0.0486108   -0.7975698   -0.4604641    0.3896860
  -0.1248391   -0.0821269    0.0465980   -0.5101071   -0.8511881   -0.1235701
  -0.1343141   -0.1185996    0.0524908   -0.9960279   -0.0890262   -0.0016648
  -0.1327394   -0.1117942    0.0614955   -0.8688488   -0.0360866    0.4937605
  -0.1332572   -0.1229807    0.0503859   -0.9536390   -0.2762342   -0.1194455
  -0.1287846   -0.1330206    0.0442018   -0.8181494   -0.4905466   -0.2999927
  -0.1303700   -0.1302779    0.0463430   -0.9024340   -0.4223306   -0.0851452
  -0.1169622   -0.1297737    0.0301302   -0.6735557   -0.0362449   -0.7382472
  -0.1246523   -0.1365153    0.0393431   -0.6829376   -0.5570481   -0.4725395
  -0.1094628   -0.1319298    0.0232934   -0.5208077    0.1620570   -0.8381509
  -0.1293676   -0.0714033    0.0473100   -0.8871006    0.2370450    0.3960582
  -0.1291174   -0.0735505    0.0486641   -0.8769902    0.0161024    0.4802384
  -0.1296021   -0.0737365    0.0469725   -0.9829543   -0.1094392    0.1477291
  -0.1295001   -0.0749896    0.0446785   -0.9731322   -0.0319728   -0.2280163
  -0.1292292   -0.0761403    0.0461147   -0.9751115   -0.1837293    0.1241010
  -0.1285180   -0.0784505    0.0432099   -0.8744018   -0.3368758   -0.3491936
  -0.1279202   -0.0798487    0.0449423   -0.7779477   -0.6255619    0.0589046
  -0.0916200   -0.1194338    0.0312770    0.4288378    0.1257303    0.8945893
  -0.0885255   -0.1191771    0.0257502   -0.0230994    0.9971674   -0.0715795
  -0.0922665   -0.1224890    0.0222286   -0.3102870    0.8085125   -0.5000296
  -0.0947871   -0.1191836    0.0317636    0.1240016   -0.8022554    0.5839605
  -0.0953278   -0.1230642    0.0285741    0.3351117   -0.5312733    0.7781059
  -0.0990631   -0.1365037    0.0268660    0.4066725   -0.3328585    0.8507777
  -0.1052534   -0.1403255    0.0267895    0.0595111   -0.9928642    0.1033398
  -0.1133904   -0.1357918    0.0297546   -0.7056519   -0.4655354   -0.5341649
  -0.1098804   -0.1393020    0.0280765   -0.5268034   -0.8154877   -0.2397041
  -0.1048657   -0.1337855    0.0304551    0.5694793   -0.1435423    0.8093756
  -0.0978504   -0.1292573    0.0270117    0.4190325   -0.1938917    0.8870275
  -0.0967572   -0.1265427    0.0274426    0.3793851   -0.3594460    0.8525641
  -0.1313743   -0.1268390    0.0540029   -0.8145319   -0.5194461    0.2582895
  -0.1290361   -0.1313975    0.0479618   -0.8032536   -0.5704437    0.1713994
  -0.0459843   -0.1004264    0.0247508    0.0052170   -0.5542038    0.8323646
  -0.0494372   -0.1011507    0.0233437   -0.0505258   -0.7117953    0.7005674
  -0.0433608   -0.1003979    0.0243844    0.3112787   -0.3981729    0.8628812
  -0.0537932   -0.1088953    0.0156767    0.2498882   -0.7260946    0.6405798
  -0.0520004   -0.1073855    0.0166323    0.1784409   -0.7522869    0.6342108
  -0.0515306   -0.1042636    0.0202636    0.0694880   -0.7408022    0.6681194
  -0.0562750   -0.1099832    0.0151540    0.1889866   -0.7124862    0.6757570
  -0.0664430   -0.1086017    0.0189371    0.2939641   -0.7150695    0.6342403
  -0.0631262   -0.1098383    0.0172819    0.1450725   -0.7019412    0.6973038
  -0.0663020   -0.1182018    0.0081731    0.3282784   -0.7926479    0.5137535
  -0.0700909   -0.1094576    0.0218848    0.4745824   -0.5882291    0.6547962
  -0.0408401   -0.0994479    0.0228759    0.8891266    0.0917520    0.4483697
  -0.0455471   -0.0954934    0.0229979    0.6599685    0.7370490   -0.1456036
  -0.0423596   -0.0961589    0.0100995    0.4622611    0.8796350   -0.1120578
  -0.0463224    0.0339815    0.1305538   -0.4579827   -0.1194439    0.8809001
  -0.0388067    0.0191516    0.1320285   -0.1651096   -0.1520347    0.9744867
  -0.0440822    0.0291516    0.1311289   -0.5816536   -0.2053944    0.7870783
  -0.0503533    0.0406057    0.1288819   -0.5576788    0.0880624    0.8253723
  -0.0582369    0.0532860    0.1176972   -0.4554233    0.4255048    0.7820072
  -0.0530649    0.0454867    0.1246736   -0.6205680    0.2692218    0.7364883
  -0.0685437    0.0588794    0.1087009   -0.5944681    0.2761134    0.7552278
  -0.0791808    0.0413224    0.0971279   -0.7269585   -0.0928731    0.6803719
  -0.1077546    0.0405263    0.0695217   -0.5575066   -0.0866904    0.8256338
  -0.1231025    0.0344995    0.0603792   -0.4716804   -0.0677193    0.8791653
  -0.1365266    0.0171730    0.0532685   -0.4278263    0.0615499    0.9017629
  -0.0885333    0.0464687    0.0871631   -0.7931055   -0.0251292    0.6085656
  -0.0903294    0.0494966    0.0843094   -0.7168551   -0.0406011    0.6960391
  -0.0955276    0.0488006    0.0805488   -0.5931826   -0.0542649    0.8032370
  -0.1066209    0.0483930    0.0723630   -0.5610545   -0.0949490    0.8223153
  -0.1401351   -0.0046079    0.0543653   -0.4662309    0.2051184    0.8605552
  -0.1512576   -0.0299957    0.0518367   -0.4665217   -0.8623192    0.1968834
  -0.1566061   -0.0125679    0.0512785   -0.3871580    0.1782587    0.9046173
  -0.1549342   -0.0239156    0.0537993   -0.6060717   -0.2073651    0.7679041
  -0.1557127   -0.0260112    0.0506155   -0.7466600   -0.5609644    0.3575161
  -0.1487036    0.0018732    0.0491373   -0.2783681    0.1644284    0.9462951
  -0.1427949   -0.0313214    0.0535850    0.0143741   -0.9962866   -0.0848901
  -0.0497506   -0.0979065    0.0029317   -0.0876692    0.8471980   -0.5239939
  -0.0562649   -0.1010475    0.0021473   -0.3737144    0.7599115   -0.5318572
  -0.0722084   -0.1109157    0.0141314   -0.8250957    0.5180178   -0.2255543
  -0.0711664   -0.1075819    0.0237046   -0.2096751   -0.2723918    0.9390629
  -0.0675898   -0.1130772    0.0002557   -0.4940090    0.3956217   -0.7742342
  -0.1290157   -0.0272342    0.0492475    0.2220390    0.0966594   -0.9702348
  -0.1402342   -0.0276289    0.0476204    0.1301733   -0.2639874   -0.9557016
  -0.1222560   -0.0269159    0.0513209    0.1799552    0.2705898   -0.9457258
  -0.1482448   -0.0304176    0.0504328   -0.0440913   -0.8785917   -0.4755340
  -0.1155705   -0.0216389    0.0549195   -0.1684362    0.4607250   -0.8714136
  -0.1130930   -0.0179391    0.0556245   -0.2500426    0.3226720   -0.9128863
  -0.1108297   -0.0132110    0.0564116   -0.3423165    0.1853128   -0.9211289
  -0.1075022   -0.0077630    0.0553637   -0.4496565    0.1034365   -0.8871921
  -0.1003479   -0.0008009    0.0536624    0.3117546    0.1450028   -0.9390331
  -0.1038327   -0.0041650    0.0539343   -0.3681580    0.1422571   -0.9188159
  -0.0982680    0.0081723    0.0558328    0.5927130    0.1065667   -0.7983325
  -0.0509065    0.0380988    0.1078037    0.6351407    0.0320239   -0.7717323
  -0.0555744    0.0475382    0.1042929    0.6359509    0.0059394   -0.7717067
  -0.0997517    0.0174838    0.0576675    0.9235104    0.2816399   -0.2603987
  -0.1001317    0.0247756    0.0641002    0.8220406    0.1470620   -0.5501109
  -0.0989303    0.0137520    0.0571307    0.9299054    0.2136120   -0.2994092
  -0.1039807    0.0352930    0.0590770    0.7212847   -0.2082885   -0.6605788
  -0.1050124    0.0384153    0.0560993    0.5856184   -0.1355001   -0.7991814
  -0.0986581    0.0528159    0.0634419    0.6867063    0.0712766   -0.7234322
  -0.0635623    0.0538384    0.0961898    0.7028827    0.1034502   -0.7037428
  -0.0250194   -0.0000121    0.1225676    0.9698413    0.2280976    0.0859029
  -0.0262627   -0.0171412    0.1202664    0.4818757   -0.4814281    0.7321358
  -0.0251566   -0.0031948    0.1238925    0.8164692   -0.0499059    0.5752281
  -0.0317095    0.0172809    0.1263379    0.9395086    0.3329468    0.0804360
  -0.0349789   -0.0246240    0.1110848   -0.5542727   -0.7867636    0.2716335
  -0.0343103   -0.0233107    0.1161957   -0.3825643   -0.7158622    0.5841111
  -0.0478158    0.0351349    0.1106730    0.7352503    0.0321593   -0.6770323
  -0.0374876    0.0319184    0.1222048    0.9028045    0.2881566   -0.3192332
  -0.0355130   -0.0220265    0.1152680   -0.8560986   -0.4249329    0.2941549
  -0.0315821    0.0021354    0.1277477   -0.3319498   -0.2648588    0.9053503
  -0.0321229   -0.0165519    0.1230510   -0.1095935   -0.4512064    0.8856647
  -0.1281356   -0.0786832    0.0471582   -0.8473229   -0.3833455    0.3675462
  -0.1013931   -0.1326452    0.0199073   -0.3260556   -0.0768536   -0.9422215
  -0.1084969   -0.1396872    0.0260986   -0.3982207   -0.7156880   -0.5737691
  -0.0965164   -0.1266058    0.0203640   -0.4864329    0.5843336   -0.6495670
  -0.1289685   -0.0778190    0.0449544   -0.9449959   -0.3249165    0.0375772
  -0.0910499   -0.1202111    0.0299601   -0.0108243   -0.9320776    0.3620970
  -0.0877028   -0.1201118    0.0295629    0.2289537   -0.3243420    0.9178140
  -0.0820219   -0.1171553    0.0231740   -0.3483404    0.9303334    0.1146241
  -0.0880346   -0.1199096    0.0190392   -0.5738061    0.7355475   -0.3601617
  -0.0906264   -0.1204980    0.0286114    0.1481533   -0.8241890    0.5465922
  -0.0918499   -0.1237415    0.0270930    0.2995482   -0.4550915    0.8385479
  -0.0850832   -0.1328234    0.0227705    0.4472931   -0.4271099    0.7858155
  -0.0930081   -0.1375277    0.0216955    0.1789694   -0.9228650   -0.3410133
  -0.0867734   -0.1252309    0.0233239    0.4396615   -0.3394068    0.8315653
  -0.0852150   -0.1245757    0.0227898    0.3801489   -0.2226655    0.8977232
  -0.0937508   -0.1297070    0.0254155    0.3746968   -0.1827786    0.9089523
  -0.0928702   -0.1269909    0.0257846    0.3573293   -0.3791392    0.8535627
  -0.0435173   -0.1015759    0.0236810    0.1448724   -0.6993764    0.6999176
  -0.0462507   -0.1021094    0.0230540   -0.0619868   -0.7788618    0.6241249
  -0.0496453   -0.1031821    0.0212691    0.0544586   -0.7782798    0.6255516
  -0.0414920   -0.1015582    0.0227879    0.6144672   -0.6016975    0.5102844
  -0.0535030   -0.1125739    0.0109118    0.4274815   -0.7471428    0.5089569
  -0.0518239   -0.1107984    0.0121278    0.3249832   -0.7857362    0.5263122
  -0.0501243   -0.1061868    0.0176805    0.1899223   -0.7724406    0.6060239
  -0.0570844   -0.1133381    0.0120879    0.2293536   -0.7013100    0.6749528
  -0.0696351   -0.1200829    0.0007322   -0.2003038   -0.9751662   -0.0944945
  -0.0591012   -0.1190963    0.0060050    0.2569230   -0.9455235    0.1999395
  -0.0703615   -0.1152057    0.0155414    0.6321589   -0.5539113    0.5418093
  -0.0708596   -0.1193065    0.0125759    0.7751164   -0.5695725    0.2734626
  -0.0598331   -0.1185297    0.0074929    0.1496540   -0.7953905    0.5873309
  -0.0552814   -0.1152505    0.0092890    0.4823276   -0.7748609    0.4085960
  -0.0711640   -0.1206290    0.0050006   -0.3210062   -0.9058717   -0.2763177
  -0.0725264   -0.1215458    0.0104103    0.1770653   -0.9117940   -0.3705126
  -0.0706035   -0.1140760    0.0171101    0.6521968   -0.5670726    0.5030586
  -0.0723471   -0.1119655    0.0218571    0.6024285   -0.4723829    0.6433773
  -0.0403222   -0.1010502    0.0199657    0.9788302    0.1536606    0.1352028
  -0.0410961   -0.0975517    0.0103601    0.7915096    0.5993991   -0.1193034
  -0.0443111   -0.0981408    0.0031889    0.3997683    0.7671968   -0.5015919
  -0.0434834    0.0321837    0.1316257    0.1338669    0.1514638    0.9793561
  -0.0440693    0.0377090    0.1303670    0.2108782    0.4009129    0.8915151
  -0.0483639    0.0401857    0.1296958   -0.0309153    0.4172294    0.9082752
  -0.0355907    0.0167327    0.1317737    0.1658959    0.0314791    0.9856407
  -0.0373698    0.0251402    0.1289927    0.1299421    0.2099133    0.9690467
  -0.0393949    0.0311726    0.1295033    0.5647209    0.2367831    0.7905846
  -0.0508331    0.0468051    0.1248330   -0.0877108    0.6146422    0.7839144
  -0.0557825    0.0559350    0.1159530    0.1039666    0.7853649    0.6102400
  -0.0656277    0.0612493    0.1077978    0.0336098    0.9202588    0.3898642
  -0.0726646    0.0629719    0.1020112   -0.0505019    0.9454031    0.3219666
  -0.0823329    0.0578589    0.0958020   -0.7445790   -0.0000898    0.6675343
  -0.0874152    0.0640314    0.0891109   -0.6785905    0.2078326    0.7045002
  -0.0858284    0.0518026    0.0904831   -0.7912229   -0.0324347    0.6106671
  -0.1397262    0.0421118    0.0524269   -0.6977859    0.5337143    0.4777488
  -0.1283683    0.0508883    0.0583702   -0.6664098    0.6432122    0.3770625
  -0.1482861    0.0343547    0.0472883   -0.7290260    0.5024616    0.4648154
  -0.1545564    0.0188487    0.0471431   -0.3977459    0.1019228    0.9118168
  -0.0958817    0.0540757    0.0808568   -0.6155632   -0.0883318    0.7831216
  -0.0999151    0.0526805    0.0774998   -0.6074503   -0.0557743    0.7923972
  -0.1015846    0.0627695    0.0768430   -0.5505435    0.6583688    0.5132760
  -0.1109651    0.0590382    0.0703414   -0.6196181    0.4406823    0.6495171
  -0.1544008   -0.0274196    0.0481196   -0.4304115   -0.7478157   -0.5054876
  -0.1581442   -0.0189153    0.0514966   -0.8292064   -0.1060750    0.5487849
  -0.1584808   -0.0096622    0.0496881   -0.8755978    0.0744943    0.4772622
  -0.1586111   -0.0006551    0.0481958   -0.6039134    0.1012011    0.7905991
  -0.1582458   -0.0227640    0.0470646   -0.7093991   -0.3374968   -0.6187478
  -0.0432533   -0.1013746    0.0006659    0.0777167    0.2962121   -0.9519551
  -0.0741908   -0.1121111    0.0227866   -0.5149404    0.6310045    0.5802325
  -0.0725224   -0.1141923    0.0093353   -0.7972815    0.5219615   -0.3031476
  -0.0735603   -0.1137611    0.0143199   -0.7691349    0.6088274   -0.1943213
  -0.0509401   -0.1127344    0.0006106    0.4325938   -0.5774191   -0.6924232
  -0.0619296   -0.1194390    0.0004397    0.1645130   -0.4420685   -0.8817658
  -0.0702094   -0.1196248    0.0000658   -0.3526042   -0.5387978   -0.7650930
  -0.0721467   -0.1181776    0.0040791   -0.9192817   -0.0608946   -0.3888611
  -0.1300894   -0.0244293    0.0509666    0.1827707    0.5631787   -0.8058688
  -0.1261584   -0.0245467    0.0519616    0.2303374    0.5740596   -0.7857482
  -0.1357013   -0.0245390    0.0500239    0.1563484    0.4806128   -0.8628827
  -0.1407277   -0.0244341    0.0490874    0.0997641    0.4192004   -0.9023958
  -0.1487441   -0.0273068    0.0472132    0.1898274   -0.0061615   -0.9817981
  -0.1231264   -0.0244332    0.0530229    0.1415968    0.5368284   -0.8317245
  -0.1197014   -0.0233647    0.0540496    0.0197991    0.5343285   -0.8450450
  -0.1174280   -0.0183946    0.0566619    0.1593422    0.2091942   -0.9648046
  -0.1128259   -0.0103188    0.0577214   -0.1481607    0.0726687   -0.9862899
  -0.1017526    0.0020765    0.0542954   -0.2118167    0.2002832   -0.9565669
  -0.1021525   -0.0009498    0.0537701   -0.2920810    0.1525837   -0.9441435
  -0.1042633    0.0032513    0.0551797    0.0381645   -0.0291185   -0.9988471
  -0.0992613    0.0139595    0.0552806    0.7721053    0.1871198   -0.6073216
  -0.1015381    0.0108920    0.0549016    0.1587114   -0.0064034   -0.9873042
  -0.0460522    0.0459285    0.1112557    0.8046930    0.2163750   -0.5528571
  -0.0622275    0.0574217    0.0993659    0.6557629    0.5076568   -0.5588019
  -0.1001053    0.0178910    0.0560383    0.7530465    0.2580402   -0.6052571
  -0.1010799    0.0225282    0.0583491    0.8864377    0.3281952   -0.3263680
  -0.1052586    0.0326179    0.0576139    0.7174398    0.1185947   -0.6864513
  -0.1073660    0.0338541    0.0565611    0.5006735    0.1521876   -0.8521532
  -0.1099329    0.0462932    0.0533701    0.4140828    0.0143708   -0.9101258
  -0.1078770    0.0538170    0.0559285    0.2922377    0.4571427   -0.8400105
  -0.0997425    0.0580764    0.0633486    0.4462405    0.4847103   -0.7522800
  -0.0929304    0.0602792    0.0710082    0.4970630    0.6345575   -0.5918320
  -0.0730735    0.0591205    0.0882293    0.6219441    0.5022745   -0.6007544
  -0.0320782    0.0116570    0.1296468    0.6515926    0.0492998    0.7569654
  -0.0274945   -0.0014977    0.1259137    0.4189945   -0.1924795    0.8873529
  -0.0350926    0.0184375    0.1314578    0.3057047    0.2032445    0.9301808
  -0.0381380    0.0311285    0.1286389    0.6676688    0.3377392    0.6634385
  -0.0430565    0.0399340    0.1157149    0.8882211    0.2107395   -0.4082306
  -0.0415895    0.0396054    0.1273436    0.8159525    0.4596444    0.3506401
  -0.1018850   -0.1383494    0.0224762   -0.1382614   -0.6482625   -0.7487587
  -0.0898057   -0.1286141    0.0165448   -0.2539239   -0.1654357   -0.9529710
  -0.0870899   -0.1208501    0.0269777    0.3345337   -0.6576230    0.6749957
  -0.0809080   -0.1177953    0.0259414    0.1833033    0.2617212    0.9475769
  -0.0775954   -0.1149993    0.0222918   -0.5333915    0.7926852    0.2952012
  -0.0748565   -0.1147322    0.0144891   -0.6658751    0.6248551   -0.4076353
  -0.0792209   -0.1214252    0.0121667   -0.3904041    0.0083206   -0.9206060
  -0.0879664   -0.1240508    0.0255073    0.4384136   -0.5587875    0.7039532
  -0.0795057   -0.1289703    0.0209304    0.5437153   -0.2980303    0.7845710
  -0.0795860   -0.1248266    0.0208223    0.3481375   -0.0215089    0.9371967
  -0.0810500   -0.1322272    0.0177312    0.4810165   -0.8119044   -0.3308085
  -0.0830003   -0.1215581    0.0233942    0.4585464   -0.5547626    0.6942432
  -0.0855430   -0.1227774    0.0243017    0.5376169   -0.6094651    0.5826838
  -0.0893672   -0.1263617    0.0242940    0.4787345   -0.4728544    0.7397446
  -0.0789929   -0.1225168    0.0207772    0.4252986   -0.1159414    0.8975961
  -0.0762254   -0.1186561    0.0200185    0.6201127   -0.3993956    0.6752358
  -0.0773910   -0.1168510    0.0237445    0.4991634   -0.3904522    0.7735521
  -0.0448098   -0.1031796    0.0216463    0.0314468   -0.8562131    0.5156648
  -0.0427471   -0.1027319    0.0218578    0.3981669   -0.8526161    0.3383918
  -0.0482037   -0.1037246    0.0200518    0.0620725   -0.8222788    0.5656894
  -0.0413470   -0.1021876    0.0187671    0.6019510   -0.7853878    0.1442946
  -0.0501721   -0.1106669    0.0107171    0.5185518   -0.8089926    0.2768303
  -0.0492519   -0.1111157    0.0051462    0.5966094   -0.7876426    0.1538711
  -0.0465797   -0.1068274    0.0147000    0.4752141   -0.8211935    0.3159316
  -0.0466403   -0.1046445    0.0189941    0.1186770   -0.8535488    0.5073168
  -0.0484652   -0.1091375    0.0119213    0.5205377   -0.7997548    0.2990530
  -0.0625037   -0.1199948    0.0009689    0.1654610   -0.9166166   -0.3639186
  -0.0593193   -0.1187623    0.0010326    0.5052377   -0.8066211   -0.3067528
  -0.0716802   -0.1163791    0.0161234    0.7351649   -0.3683934    0.5690508
  -0.0732337   -0.1241219    0.0173512    0.8066730   -0.3531268    0.4738988
  -0.0744989   -0.1199851    0.0099604   -0.7344785   -0.2542703   -0.6291962
  -0.0399996   -0.0994831    0.0094918    0.8678934    0.4830999   -0.1156524
  -0.0393570   -0.1023674    0.0107304    0.9268481   -0.3720999    0.0499423
  -0.0410655   -0.1004856    0.0017141    0.7169429    0.4611608   -0.5228037
  -0.0452402    0.0458054    0.1234243    0.4894167    0.7065455    0.5111406
  -0.0532007    0.0564862    0.1130510    0.5645374    0.8219798    0.0751446
  -0.0570945    0.0565388    0.1052111    0.5903748    0.7588740   -0.2748961
  -0.0849121    0.0653625    0.0903927   -0.2570718    0.9263961    0.2751442
  -0.0815009    0.0646070    0.0885317    0.3383686    0.9001273   -0.2743673
  -0.0702342    0.0624074    0.0991303    0.4059520    0.9011302   -0.1522084
  -0.0910427    0.0640926    0.0857193   -0.4359305    0.8191259    0.3728235
  -0.1328626    0.0468306    0.0532658   -0.3780514    0.8192718   -0.4311273
  -0.1394169    0.0417321    0.0500514   -0.4134280    0.7997500   -0.4352898
  -0.1261170    0.0515438    0.0572444   -0.3347889    0.8397004   -0.4275741
  -0.1210641    0.0548593    0.0597950   -0.3153339    0.8779608   -0.3602075
  -0.1135118    0.0588892    0.0672824   -0.4280178    0.9034730    0.0231793
  -0.1568771    0.0212730    0.0421315   -0.7106799    0.5123787   -0.4820811
  -0.1488183    0.0339190    0.0441188   -0.4598609    0.6874320   -0.5621078
  -0.1573655    0.0200782    0.0456025   -0.8163381    0.3405133    0.4665221
  -0.1600719    0.0125660    0.0446097   -0.8241741    0.2531412    0.5066129
  -0.1606816    0.0071161    0.0450963   -0.8060907   -0.0195209    0.5914700
  -0.1106985    0.0599467    0.0689359   -0.3625313    0.9307944    0.0468274
  -0.1030343    0.0611704    0.0667849    0.0071175    0.9498858   -0.3125162
  -0.0919842    0.0639801    0.0794259    0.0553075    0.9785817   -0.1982899
  -0.0960107    0.0628237    0.0738242    0.1092729    0.9474465   -0.3006734
  -0.1533079   -0.0230737    0.0452191    0.2220377   -0.0161759   -0.9749039
  -0.1596592   -0.0166949    0.0467085   -0.9202209   -0.0571931   -0.3871981
  -0.1591618   -0.0101302    0.0465623   -0.8143412   -0.1217456   -0.5674737
  -0.1593631   -0.0055676    0.0455560   -0.9679741   -0.2242271   -0.1129085
  -0.1550135   -0.0185656    0.0458071    0.2121217    0.1825112   -0.9600490
  -0.1567193   -0.0133333    0.0463574    0.2039417   -0.0762544   -0.9760087
  -0.0403974   -0.1049562    0.0013528    0.7591792   -0.5795376   -0.2962820
  -0.0765920   -0.1143385    0.0237239    0.0848035    0.2575493    0.9625366
  -0.1313959   -0.0215531    0.0526617    0.2228719    0.1598903   -0.9616461
  -0.1238163   -0.0216772    0.0547011    0.2432124    0.1466583   -0.9588217
  -0.1408719   -0.0206981    0.0506645    0.1094551    0.1957075   -0.9745348
  -0.1451059   -0.0242768    0.0489481    0.0804054    0.3868061   -0.9186490
  -0.1490112   -0.0231011    0.0489004    0.3115561    0.3359072   -0.8888752
  -0.1512968   -0.0212616    0.0478945    0.6429608    0.2666750   -0.7179735
  -0.1195920   -0.0097382    0.0520747    0.3483970   -0.1385559   -0.9270501
  -0.1137397    0.0026546    0.0532283    0.0962304    0.0132876   -0.9952704
  -0.1060433    0.0086489    0.0545853    0.1085906   -0.0018234   -0.9940849
  -0.1018255    0.0196441    0.0548056    0.3180652    0.1614914   -0.9342136
  -0.1041428    0.0144508    0.0547330    0.0805203   -0.0150989   -0.9966386
  -0.1056090    0.0119941    0.0546186    0.0679158    0.0036231   -0.9976845
  -0.0459303    0.0475240    0.1159152    0.8323285    0.5389492   -0.1294720
  -0.1093632    0.0305453    0.0542694    0.5463326   -0.0186121   -0.8373615
  -0.1068566    0.0277315    0.0558965    0.2269977   -0.0212893   -0.9736626
  -0.1063761    0.0301751    0.0556506    0.5205834   -0.0600925   -0.8516935
  -0.1111717    0.0342814    0.0537612    0.3338494    0.2611286   -0.9057353
  -0.1102818    0.0342263    0.0535946    0.3325591    0.4107471   -0.8489354
  -0.1142954    0.0454607    0.0523900    0.2996003    0.2265417   -0.9267786
  -0.1120207    0.0357636    0.0532669    0.4992418   -0.1184189   -0.8583325
  -0.1124411    0.0387465    0.0522273    0.4942370   -0.0613658   -0.8671586
  -0.1134235    0.0428548    0.0520359    0.3514155    0.1400075   -0.9256916
  -0.1143770    0.0495321    0.0527896    0.1103676    0.4302136   -0.8959549
  -0.1161449    0.0518384    0.0549055   -0.0626792    0.6936566   -0.7175736
  -0.1091724    0.0588954    0.0625673   -0.0738828    0.8705326   -0.4865330
  -0.1119621    0.0573348    0.0605682   -0.1464217    0.8482031   -0.5090307
  -0.1007106    0.0595230    0.0641443    0.2206120    0.7677771   -0.6015386
  -0.0841657   -0.1206887    0.0256309    0.5120997   -0.5847499    0.6291434
  -0.0769097   -0.1208021    0.0198402    0.5327994   -0.1078758    0.8393376
  -0.0449008   -0.1046691    0.0183659    0.3286942   -0.8873849    0.3232771
  -0.0426618   -0.1034591    0.0162598    0.5753850   -0.8023560    0.1586093
  -0.0453946   -0.1075543    0.0085418    0.6055929   -0.7762503    0.1751930
  -0.1297461    0.0459248    0.0511250   -0.1498346    0.7049925   -0.6932064
  -0.1235442    0.0503953    0.0542607   -0.1562921    0.7140291   -0.6824480
  -0.1401529    0.0384007    0.0463622   -0.1599011    0.6650903   -0.7294426
  -0.1358977    0.0416300    0.0484053   -0.2226241    0.6526270   -0.7242351
  -0.1189487    0.0538079    0.0570656   -0.1423019    0.7787004   -0.6110448
  -0.1503453    0.0271352    0.0416116   -0.3752327    0.4792245   -0.7934382
  -0.1461902    0.0340300    0.0438773   -0.1963723    0.4983574   -0.8444393
  -0.1596817    0.0154444    0.0415041   -0.8441653    0.3948010   -0.3626530
  -0.1535050    0.0209426    0.0394318   -0.3908486    0.4519621   -0.8018526
  -0.1622621    0.0082731    0.0418939   -0.9223600    0.2958842   -0.2484043
  -0.1623425    0.0079159    0.0428137   -0.9590796   -0.0409169    0.2801646
  -0.1613448    0.0041237    0.0414157   -0.9316558   -0.2387366    0.2739021
  -0.1528866   -0.0212184    0.0463436    0.6031776    0.2566550   -0.7551854
  -0.1565835   -0.0090047    0.0444582   -0.0302683   -0.4023039   -0.9150057
  -0.1564479   -0.0053619    0.0425953    0.0888441   -0.6636606   -0.7427391
  -0.1616000    0.0019872    0.0374660   -0.8209937   -0.2783204   -0.4985049
  -0.1545923   -0.0159857    0.0468939    0.6147213    0.3499414   -0.7068654
