NORM_ASCII
958 1070
   0.0472550   -0.0034390    0.0243450   -0.4497469   -0.0801730   -0.8895504
   0.0455680   -0.0035310    0.0238100    0.6132923   -0.1076111   -0.7824911
   0.0442450   -0.0041530    0.0219840    0.2162479   -0.3723121   -0.9025633
   0.0429090   -0.0038350    0.0225620   -0.8406761   -0.1985112   -0.5038422
   0.0497760   -0.0037730    0.0254410    0.5383663   -0.8424994   -0.0188825
   0.0474850   -0.0047570    0.0244420   -0.4839501   -0.8635245   -0.1418372
   0.0473480   -0.0039440    0.0249100   -0.5947334   -0.7279098   -0.3412325
   0.0455710   -0.0042430    0.0244150    0.4757184   -0.8347366   -0.2773207
   0.0440900   -0.0053560    0.0234810    0.1010128   -0.9479652   -0.3019245
   0.0427390   -0.0046280    0.0236820   -0.8586659   -0.4306986   -0.2778337
   0.0496170   -0.0037730    0.0263450    0.4913120   -0.8365660    0.2424250
   0.0471220   -0.0047570    0.0265000   -0.4750865   -0.8765677    0.0769537
   0.0471530   -0.0039440    0.0260140   -0.5522874   -0.8333326    0.0231404
   0.0453140   -0.0042430    0.0258720    0.3649815   -0.9008598    0.2350320
   0.0436030   -0.0053560    0.0262420    0.0054242   -0.9809670    0.1940986
   0.0424020   -0.0046280    0.0255910   -0.8904922   -0.4494584   -0.0707867
   0.0494710   -0.0035180    0.0271750    0.5203781   -0.6116970    0.5958468
   0.0468780   -0.0040330    0.0280390   -0.4575833   -0.7425141    0.4891731
   0.0468620   -0.0035840    0.0268840   -0.4980070   -0.7726971    0.3936092
   0.0450360   -0.0038080    0.0271390    0.3966626   -0.6709015    0.6265381
   0.0431090   -0.0044430    0.0284260   -0.0949072   -0.7638793    0.6383424
   0.0421450   -0.0040330    0.0272050   -0.9474692   -0.3074895    0.0880471
   0.0342910   -0.0030020    0.0396770    0.9544579   -0.1927414    0.2277300
   0.0330330   -0.0030020    0.0412150    0.5843025    0.0231864    0.8112047
   0.0304640   -0.0030020    0.0421020   -0.3439383    0.0436543    0.9379769
   0.0303060   -0.0030020    0.0408180   -0.2601704   -0.1323699    0.9564463
   0.0285150   -0.0030020    0.0413400    0.4271657    0.1248939    0.8955060
   0.0264980   -0.0030020    0.0428270   -0.3397985    0.1967233    0.9196939
   0.0256880   -0.0030020    0.0415110   -0.9868720    0.0050280    0.1614262
   0.0263140   -0.0030020    0.0382710   -0.9882584   -0.0008739   -0.1527891
   0.0333910   -0.0025260    0.0407380    0.5325881    0.6404624    0.5533154
   0.0308700   -0.0022350    0.0410400   -0.0675664    0.8101753    0.5822807
   0.0295360   -0.0024060    0.0403640    0.1502654    0.6955610    0.7025775
   0.0277820   -0.0019840    0.0411390    0.2177510    0.8321706    0.5099771
   0.0261910   -0.0018120    0.0413000   -0.1500346    0.7807013    0.6066260
   0.0257880   -0.0019840    0.0407880   -0.9818669   -0.1889732   -0.0150533
   0.0337990   -0.0023600    0.0399790    0.5111049    0.8293581    0.2256922
   0.0313260   -0.0021030    0.0396980    0.0506853    0.9902620    0.1296619
   0.0288710   -0.0020170    0.0393180    0.2777116    0.9397159    0.1995250
   0.0272850   -0.0010770    0.0396070    0.1216301    0.9817435    0.1462392
   0.0259950   -0.0014610    0.0391480    0.8624837    0.4892346    0.1295039
   0.0260440   -0.0014190    0.0391820   -0.3667938   -0.9056292   -0.2128334
   0.0339320   -0.0023600    0.0392260    0.5549313    0.8318575   -0.0080260
   0.0315120   -0.0021030    0.0386440    0.0633804    0.9628084   -0.2626462
   0.0290750   -0.0020170    0.0381630    0.2895612    0.8758341   -0.3860946
   0.0276830   -0.0010770    0.0373480    0.2828918    0.9309030   -0.2310669
   0.0263140   -0.0014610    0.0373400    0.1808200    0.9000819   -0.3964298
   0.0263710   -0.0014190    0.0373230   -0.8986234   -0.0577640   -0.4349015
   0.0339770   -0.0025660    0.0385040    0.6975109    0.6766308   -0.2359011
   0.0322350   -0.0023540    0.0376550    0.1078510    0.6021951   -0.7910305
   0.0299410   -0.0025520    0.0377590    0.1147746   -0.1756840   -0.9777331
   0.0285000   -0.0022620    0.0367590    0.5507485    0.4825056   -0.6810759
   0.0271070   -0.0021030    0.0361070    0.1276208    0.7052651   -0.6973622
   0.0265400   -0.0021820    0.0362100   -0.7920798    0.2514182   -0.5562360
   0.0339640   -0.0030020    0.0381120    0.8968893   -0.0068121   -0.4422026
   0.0328840   -0.0030020    0.0370840    0.0717335   -0.2227788   -0.9722263
   0.0306730   -0.0030020    0.0381180   -0.2029368   -0.3551899   -0.9125003
   0.0290240   -0.0030020    0.0378280    0.5695339    0.2201784   -0.7919297
   0.0277300   -0.0030020    0.0358400    0.2344873    0.2722971   -0.9332042
   0.0265130   -0.0030020    0.0362120   -0.7911184    0.0081356   -0.6116089
   0.0337280   -0.0034780    0.0383590    0.6878029   -0.6742703   -0.2688621
   0.0321110   -0.0039150    0.0369560   -0.2272923   -0.6777164   -0.6993130
   0.0308930   -0.0034390    0.0379600   -0.4498689   -0.0805906   -0.8894510
   0.0292050   -0.0035310    0.0374260    0.6133007   -0.1073411   -0.7825216
   0.0278820   -0.0041530    0.0355980    0.2161102   -0.3720614   -0.9026997
   0.0265460   -0.0038350    0.0361770   -0.8408618   -0.1980344   -0.5037199
   0.0334130   -0.0037730    0.0390570    0.5383826   -0.8424890   -0.0188811
   0.0311220   -0.0047570    0.0380580   -0.4841459   -0.8633375   -0.1423062
   0.0309850   -0.0039440    0.0385260   -0.5948664   -0.7276015   -0.3416579
   0.0292080   -0.0042430    0.0380310    0.4758074   -0.8346945   -0.2772948
   0.0277270   -0.0053560    0.0370960    0.1011179   -0.9480031   -0.3017703
   0.0263760   -0.0046280    0.0372980   -0.8586697   -0.4307687   -0.2777133
   0.0332540   -0.0037730    0.0399610    0.4913853   -0.8365223    0.2424273
   0.0307590   -0.0047570    0.0401160   -0.4750971   -0.8765587    0.0769905
   0.0307900   -0.0039440    0.0396310   -0.5523472   -0.8332923    0.0231648
   0.0289510   -0.0042430    0.0394870    0.3650474   -0.9008197    0.2350835
   0.0272410   -0.0053560    0.0398580    0.0056459   -0.9809533    0.1941614
   0.0260390   -0.0046280    0.0392060   -0.8904616   -0.4495133   -0.0708232
   0.0331080   -0.0035180    0.0407910    0.5206102   -0.6112848    0.5960671
   0.0305150   -0.0040330    0.0416550   -0.4575664   -0.7424092    0.4893480
   0.0304990   -0.0035840    0.0405000   -0.4979274   -0.7729009    0.3933097
   0.0286730   -0.0038080    0.0407540    0.3965000   -0.6711184    0.6264087
   0.0267460   -0.0044430    0.0420410   -0.0948339   -0.7638113    0.6384347
   0.0257820   -0.0040330    0.0408200   -0.9474436   -0.3075424    0.0881381
   0.0195930   -0.0030020    0.0510490    0.9544697   -0.1925543    0.2278384
   0.0183350   -0.0030020    0.0525860    0.5841193    0.0223410    0.8113603
   0.0157660   -0.0030020    0.0534730   -0.3442072    0.0431001    0.9379039
   0.0156090   -0.0030020    0.0521880   -0.2602597   -0.1326496    0.9563833
   0.0138170   -0.0030020    0.0527100    0.4269503    0.1249946    0.8955947
   0.0118000   -0.0030020    0.0541980   -0.3392217    0.1972402    0.9197961
   0.0109900   -0.0030020    0.0528830   -0.9868062    0.0052350    0.1618215
   0.0116160   -0.0030020    0.0496420   -0.9882484   -0.0007574   -0.1528548
   0.0186930   -0.0025260    0.0521100    0.5324521    0.6407493    0.5531140
   0.0161730   -0.0022350    0.0524110   -0.0676284    0.8100583    0.5824363
   0.0148390   -0.0024060    0.0517350    0.1502528    0.6952189    0.7029187
   0.0130840   -0.0019840    0.0525100    0.2175028    0.8321467    0.5101220
   0.0114940   -0.0018120    0.0526690   -0.1496218    0.7808660    0.6065160
   0.0110900   -0.0019840    0.0521580   -0.9819269   -0.1887007   -0.0145498
   0.0191010   -0.0023600    0.0513490    0.5108065    0.8296366    0.2253437
   0.0166280   -0.0021030    0.0510690    0.0506707    0.9902718    0.1295924
   0.0141730   -0.0020170    0.0506880    0.2776815    0.9397466    0.1994224
   0.0125870   -0.0010770    0.0509770    0.1215865    0.9817498    0.1462330
   0.0112970   -0.0014610    0.0505170    0.8633576    0.4875025    0.1302111
   0.0113460   -0.0014190    0.0505510   -0.3693701   -0.9046276   -0.2126375
   0.0192340   -0.0023600    0.0505970    0.5548828    0.8318906   -0.0079404
   0.0168140   -0.0021030    0.0500150    0.0634412    0.9628992   -0.2622982
   0.0143770   -0.0020170    0.0495330    0.2894669    0.8759222   -0.3859652
   0.0129850   -0.0010770    0.0487180    0.2828612    0.9308644   -0.2312596
   0.0116160   -0.0014610    0.0487100    0.1774663    0.9000630   -0.3979854
   0.0116740   -0.0014190    0.0486940   -0.8990182   -0.0605916   -0.4336992
   0.0192790   -0.0025660    0.0498750    0.6975326    0.6766041   -0.2359132
   0.0175370   -0.0023540    0.0490250    0.1081374    0.6025646   -0.7907100
   0.0152430   -0.0025520    0.0491280    0.1151081   -0.1750536   -0.9778069
   0.0138020   -0.0022620    0.0481300    0.5504928    0.4823666   -0.6813811
   0.0124090   -0.0021030    0.0474770    0.1274902    0.7053578   -0.6972923
   0.0118430   -0.0021820    0.0475800   -0.7919987    0.2520696   -0.5560566
   0.0192660   -0.0030020    0.0494820    0.8968607   -0.0059955   -0.4422724
   0.0181860   -0.0030020    0.0484550    0.0717874   -0.2233493   -0.9720914
   0.0159750   -0.0030020    0.0494880   -0.2024408   -0.3557835   -0.9123792
   0.0143270   -0.0030020    0.0491970    0.5695163    0.2200794   -0.7919698
   0.0130320   -0.0030020    0.0472100    0.2342707    0.2718750   -0.9333816
   0.0118150   -0.0030020    0.0475820   -0.7911643    0.0082346   -0.6115482
   0.0190310   -0.0034780    0.0497290    0.6883118   -0.6737086   -0.2689676
   0.0174140   -0.0039150    0.0483260   -0.2273783   -0.6779680   -0.6990411
   0.0161950   -0.0034390    0.0493310   -0.4500077   -0.0818247   -0.8892681
   0.0145070   -0.0035310    0.0487950    0.6133412   -0.1076486   -0.7824477
   0.0131840   -0.0041530    0.0469690    0.2160171   -0.3724369   -0.9025671
   0.0118480   -0.0038350    0.0475480   -0.8408007   -0.1984258   -0.5036679
   0.0187160   -0.0037730    0.0504280    0.5384421   -0.8424580   -0.0185632
   0.0164240   -0.0047570    0.0494280   -0.4840812   -0.8633932   -0.1421888
   0.0162870   -0.0039440    0.0498950   -0.5948002   -0.7277883   -0.3413751
   0.0145100   -0.0042430    0.0494010    0.4757235   -0.8347811   -0.2771781
   0.0130300   -0.0053560    0.0484670    0.1012025   -0.9479866   -0.3017937
   0.0116780   -0.0046280    0.0486690   -0.8586511   -0.4308133   -0.2777017
   0.0185560   -0.0037730    0.0513310    0.4912730   -0.8365150    0.2426798
   0.0160610   -0.0047570    0.0514870   -0.4757264   -0.8762053    0.0771274
   0.0160920   -0.0039440    0.0510000   -0.5529233   -0.8329097    0.0231775
   0.0142530   -0.0042430    0.0508580    0.3650049   -0.9008345    0.2350927
   0.0125430   -0.0053560    0.0512280    0.0055647   -0.9809426    0.1942178
   0.0113410   -0.0046280    0.0505780   -0.8904697   -0.4495042   -0.0707789
   0.0184100   -0.0035180    0.0521610    0.5202500   -0.6117226    0.5959323
   0.0158170   -0.0040330    0.0530250   -0.4583409   -0.7419481    0.4893227
   0.0158020   -0.0035840    0.0518710   -0.4987958   -0.7722434    0.3935008
   0.0139750   -0.0038080    0.0521250    0.3965645   -0.6709990    0.6264958
   0.0120480   -0.0044430    0.0534120   -0.0946560   -0.7639013    0.6383534
   0.0110840   -0.0040330    0.0521910   -0.9473921   -0.3076816    0.0882056
   0.0614080   -0.0030020    0.0109000    0.9500511   -0.2118690    0.2291602
   0.0606350   -0.0030020    0.0143500    0.7771818   -0.0993613    0.6213821
   0.0590300   -0.0030020    0.0150360    0.0705071   -0.0684965    0.9951568
   0.0558010   -0.0030020    0.0136920   -0.2310069   -0.1437693    0.9622714
   0.0516570   -0.0030020    0.0128650   -0.1190357   -0.1320933    0.9840640
   0.0476360   -0.0030020    0.0127370    0.0490085   -0.0414436    0.9979382
   0.0448760   -0.0030020    0.0134140   -0.3372669    0.0214160    0.9411655
   0.0435410   -0.0030020    0.0116280   -0.9660465    0.0335942    0.2561751
   0.0442850   -0.0030020    0.0078810   -0.9838493    0.0476242   -0.1725470
   0.0610800   -0.0013910    0.0134690    0.8150806    0.2068189    0.5411742
   0.0595840   -0.0009100    0.0139900    0.1979891    0.5374852    0.8197012
   0.0559830   -0.0009100    0.0133550   -0.1127627    0.4855595    0.8669005
   0.0520290   -0.0009340    0.0126190   -0.1062428    0.4994554    0.8598004
   0.0479220   -0.0006930    0.0122860   -0.0456718    0.6000573    0.7986522
   0.0456480   -0.0004290    0.0123170   -0.2985982    0.6582679    0.6910300
   0.0438950   -0.0010310    0.0110280   -0.8829708    0.4131087    0.2229432
   0.0616550   -0.0006680    0.0118430    0.8753176    0.3697245    0.3116454
   0.0603230    0.0001110    0.0119070    0.3083360    0.8864246    0.3452251
   0.0564420    0.0007330    0.0114620    0.0227786    0.9335769    0.3576524
   0.0526810    0.0007330    0.0107990   -0.0205763    0.9387446    0.3439987
   0.0485000    0.0010440    0.0101830   -0.0335262    0.9583708    0.2835514
   0.0466640    0.0009660    0.0098280   -0.2202133    0.9511017    0.2165909
   0.0444700    0.0002660    0.0091710   -0.7923319    0.6100747    0.0043689
   0.0619630   -0.0006680    0.0100990    0.9297232    0.3680438    0.0125933
   0.0607320    0.0001110    0.0095840    0.3567278    0.8327052   -0.4234942
   0.0569340    0.0007330    0.0086740    0.0653933    0.7712849   -0.6331219
   0.0531730    0.0007330    0.0080110    0.1882069    0.8195365   -0.5412375
   0.0490320    0.0010440    0.0071600    0.2425261    0.8823435   -0.4033003
   0.0471870    0.0009660    0.0068650   -0.0445369    0.9170236   -0.3963385
   0.0449000    0.0002660    0.0067310   -0.7622195    0.5548647   -0.3333866
   0.0621370   -0.0016790    0.0088720    0.9602546    0.1841526   -0.2097593
   0.0608640   -0.0012220    0.0079040    0.2422153    0.0533592   -0.9687541
   0.0576690   -0.0017760    0.0082410   -0.0847022   -0.3830958   -0.9198169
   0.0530690   -0.0017760    0.0074300    0.3316656   -0.1733625   -0.9273313
   0.0491280   -0.0012710    0.0059130    0.5641095    0.1771931   -0.8064633
   0.0471620   -0.0008620    0.0048990    0.1715137    0.3806111   -0.9086904
   0.0449010   -0.0013670    0.0053240   -0.7649552    0.2698024   -0.5848506
   0.0621420   -0.0030020    0.0086070    0.9575434   -0.1232835   -0.2605988
   0.0607720   -0.0030020    0.0074930    0.3601427    0.0055372   -0.9328808
   0.0580170   -0.0030020    0.0100120   -0.0713965    0.0026871   -0.9974444
   0.0525770   -0.0030020    0.0090520    0.3403450   -0.0576571   -0.9385313
   0.0488570   -0.0030020    0.0067490    0.5624422   -0.0624109   -0.8244778
   0.0468350   -0.0030020    0.0046480    0.1855746   -0.0228718   -0.9823640
   0.0446350   -0.0030020    0.0054230   -0.7752003    0.0303121   -0.6309879
   0.0615970   -0.0043960    0.0086600    0.9092479   -0.3962461   -0.1275044
   0.0602840   -0.0049980    0.0074480    0.4997576   -0.0317986   -0.8655814
   0.0572220   -0.0039160    0.0086720    0.0908798    0.3604920   -0.9283245
   0.0525690   -0.0038680    0.0079300    0.2650766    0.0872901   -0.9602681
   0.0488210   -0.0044930    0.0062510    0.4731909   -0.2685176   -0.8390404
   0.0466280   -0.0052380    0.0046490    0.0679303   -0.3875929   -0.9193243
   0.0447280   -0.0045890    0.0053720   -0.8167443   -0.1802350   -0.5481277
   0.0608570   -0.0055700    0.0098160    0.8539312   -0.5169085    0.0600590
   0.0594990   -0.0068140    0.0090960    0.3596400   -0.8313382   -0.4237168
   0.0561460   -0.0057260    0.0089240   -0.0633970   -0.7548552   -0.6528203
   0.0522950   -0.0055700    0.0083060    0.1736550   -0.8359306   -0.5206381
   0.0485010   -0.0062700    0.0073660    0.3623104   -0.8635543   -0.3507208
   0.0460860   -0.0072820    0.0065510   -0.0858721   -0.9109976   -0.4033724
   0.0445700   -0.0061150    0.0067340   -0.8670162   -0.3897971   -0.3103888
   0.0605190   -0.0055700    0.0117320    0.8060666   -0.5382539    0.2460473
   0.0589970   -0.0068140    0.0119430    0.1458836   -0.9481220    0.2824581
   0.0557880   -0.0057260    0.0109580   -0.2018542   -0.9579409    0.2039707
   0.0519570   -0.0055700    0.0102230    0.0242457   -0.9682730    0.2487157
   0.0480700   -0.0062700    0.0098060    0.2295794   -0.9268167    0.2971601
   0.0455230   -0.0072820    0.0097470   -0.1963795   -0.9528807    0.2312002
   0.0441600   -0.0061150    0.0090570   -0.9058865   -0.4198896   -0.0553380
   0.0604990   -0.0046860    0.0134840    0.7709404   -0.4187537    0.4798919
   0.0588840   -0.0053100    0.0142190    0.0545096   -0.6567288    0.7521543
   0.0557110   -0.0047810    0.0127980   -0.2534463   -0.6903344    0.6776455
   0.0517300   -0.0047100    0.0119780   -0.0645551   -0.6893140    0.7215808
   0.0477490   -0.0050700    0.0118640    0.1420410   -0.6312342    0.7624747
   0.0450610   -0.0056710    0.0123700   -0.2915960   -0.6452189    0.7061617
   0.0437490   -0.0049260    0.0109240   -0.9492345   -0.2873113    0.1280859
   0.0409290   -0.0030020    0.0243140    0.9500917   -0.2116341    0.2292089
   0.0403020   -0.0030020    0.0271080    0.7770487   -0.0992997    0.6215585
   0.0390010   -0.0030020    0.0276640    0.0703986   -0.0686188    0.9951560
   0.0363860   -0.0030020    0.0265740   -0.2311048   -0.1438488    0.9622360
   0.0330300   -0.0030020    0.0259040   -0.1189612   -0.1322005    0.9840586
   0.0297730   -0.0030020    0.0258010    0.0489624   -0.0415442    0.9979363
   0.0275390   -0.0030020    0.0263490   -0.3374057    0.0214363    0.9411152
   0.0264570   -0.0030020    0.0249020   -0.9659966    0.0337095    0.2563477
   0.0270590   -0.0030020    0.0218680   -0.9838448    0.0476187   -0.1725744
   0.0406620   -0.0016970    0.0263950    0.8149833    0.2071328    0.5412007
   0.0394520   -0.0013070    0.0268160    0.1980541    0.5374866    0.8196845
   0.0365350   -0.0013070    0.0263020   -0.1127245    0.4853879    0.8670016
   0.0333330   -0.0013270    0.0257060   -0.1062090    0.4992118    0.8599460
   0.0300050   -0.0011320    0.0254370   -0.0457028    0.5998608    0.7987980
   0.0281620   -0.0009180    0.0254610   -0.2986221    0.6579126    0.6913580
   0.0267430   -0.0014050    0.0244170   -0.8830708    0.4126878    0.2233266
   0.0411280   -0.0011110    0.0250770    0.8751767    0.3701464    0.3115404
   0.0400500   -0.0004810    0.0251290    0.3083206    0.8864820    0.3450913
   0.0369050    0.0000230    0.0247690    0.0228040    0.9335913    0.3576134
   0.0338600    0.0000230    0.0242320   -0.0204864    0.9387447    0.3440038
   0.0304730    0.0002760    0.0237320   -0.0333417    0.9583421    0.2836703
   0.0289860    0.0002130    0.0234450   -0.2200716    0.9510683    0.2168813
   0.0272080   -0.0003540    0.0229140   -0.7924110    0.6099709    0.0045059
   0.0413770   -0.0011110    0.0236660    0.9296448    0.3682466    0.0124480
   0.0403820   -0.0004810    0.0232460    0.3566678    0.8326174   -0.4237174
   0.0373040    0.0000230    0.0225110    0.0652503    0.7713278   -0.6330844
   0.0342580    0.0000230    0.0219740    0.1884110    0.8196672   -0.5409685
   0.0309040    0.0002760    0.0212850    0.2425507    0.8824395   -0.4030752
   0.0294090    0.0002130    0.0210460   -0.0446783    0.9170105   -0.3963528
   0.0275570   -0.0003540    0.0209370   -0.7622164    0.5547885   -0.3335204
   0.0415190   -0.0019310    0.0226710    0.9602062    0.1842225   -0.2099195
   0.0404870   -0.0015610    0.0218860    0.2420643    0.0532623   -0.9687972
   0.0379000   -0.0020090    0.0221600   -0.0848833   -0.3829848   -0.9198464
   0.0341730   -0.0020090    0.0215030    0.3319306   -0.1730542   -0.9272941
   0.0309820   -0.0015990    0.0202730    0.5640849    0.1775949   -0.8063921
   0.0293890   -0.0012680    0.0194530    0.1711678    0.3807866   -0.9086821
   0.0275580   -0.0016770    0.0197970   -0.7649859    0.2696657   -0.5848734
   0.0415230   -0.0030020    0.0224560    0.9575341   -0.1232920   -0.2606292
   0.0404130   -0.0030020    0.0215530    0.3602775    0.0056482   -0.9328281
   0.0381820   -0.0030020    0.0235940   -0.0714357    0.0027698   -0.9974414
   0.0337740   -0.0030020    0.0228160    0.3405359   -0.0576664   -0.9384614
   0.0307620   -0.0030020    0.0209500    0.5624732   -0.0623265   -0.8244630
   0.0291240   -0.0030020    0.0192490    0.1856022   -0.0224497   -0.9823685
   0.0273430   -0.0030020    0.0198770   -0.7750325    0.0308030   -0.6311702
   0.0410810   -0.0041320    0.0224990    0.9092244   -0.3962256   -0.1277352
   0.0400180   -0.0046190    0.0215170    0.4998475   -0.0318538   -0.8655275
   0.0375380   -0.0037420    0.0225090    0.0909952    0.3605845   -0.9282773
   0.0337680   -0.0037030    0.0219080    0.2651778    0.0871044   -0.9602570
   0.0307330   -0.0042100    0.0205470    0.4732996   -0.2687090   -0.8389177
   0.0289570   -0.0048130    0.0192500    0.0684302   -0.3872907   -0.9194146
   0.0274170   -0.0042870    0.0198350   -0.8166894   -0.1798950   -0.5483212
   0.0404830   -0.0050820    0.0234350    0.8539919   -0.5168238    0.0599253
   0.0393820   -0.0060910    0.0228530    0.3595719   -0.8313056   -0.4238385
   0.0366660   -0.0052080    0.0227130   -0.0633992   -0.7547182   -0.6529786
   0.0335470   -0.0050820    0.0222120    0.1736452   -0.8360058   -0.5205206
   0.0304740   -0.0056490    0.0214520    0.3623522   -0.8636244   -0.3505050
   0.0285190   -0.0064690    0.0207910   -0.0856808   -0.9110328   -0.4033337
   0.0272900   -0.0055230    0.0209380   -0.8670391   -0.3899119   -0.3101806
   0.0402090   -0.0050820    0.0249870    0.8062080   -0.5379696    0.2462060
   0.0389750   -0.0060910    0.0251580    0.1459721   -0.9480864    0.2825320
   0.0363750   -0.0052080    0.0243610   -0.2020449   -0.9579066    0.2039433
   0.0332740   -0.0050820    0.0237640    0.0242780   -0.9682673    0.2487349
   0.0301250   -0.0056490    0.0234280    0.2296569   -0.9267678    0.2972527
   0.0280620   -0.0064690    0.0233790   -0.1963376   -0.9528827    0.2312274
   0.0269580   -0.0055230    0.0228210   -0.9058399   -0.4199734   -0.0554651
   0.0401920   -0.0043650    0.0264060    0.7709879   -0.4185131    0.4800255
   0.0388840   -0.0048720    0.0270020    0.0545249   -0.6565836    0.7522799
   0.0363140   -0.0044430    0.0258500   -0.2536969   -0.6901601    0.6777293
   0.0330890   -0.0043850    0.0251870   -0.0645292   -0.6891656    0.7217248
   0.0298640   -0.0046770    0.0250940    0.1421561   -0.6311223    0.7625459
   0.0276880   -0.0051640    0.0255040   -0.2914957   -0.6451171    0.7062961
   0.0266240   -0.0045600    0.0243320   -0.9493016   -0.2871201    0.1280179
   0.0241180   -0.0030020    0.0380200    0.9554452   -0.1919115    0.2242640
   0.0235660   -0.0030020    0.0405370    0.7941177   -0.0893157    0.6011654
   0.0225000   -0.0030020    0.0410560    0.0907424   -0.0693748    0.9934551
   0.0203920   -0.0030020    0.0401200   -0.2374982   -0.1436848    0.9607025
   0.0176740   -0.0030020    0.0395690   -0.1133694   -0.1321620    0.9847236
   0.0150300   -0.0030020    0.0395260    0.0720063   -0.0404542    0.9965834
   0.0132050   -0.0030020    0.0400520   -0.3469357    0.0243660    0.9375724
   0.0123480   -0.0030020    0.0387710   -0.9716589    0.0321571    0.2341898
   0.0128840   -0.0030020    0.0360390   -0.9840341    0.0431506   -0.1726702
   0.0238700   -0.0018280    0.0398910    0.8287305    0.2029583    0.5215493
   0.0228790   -0.0014770    0.0402890    0.2275865    0.5299631    0.8169110
   0.0205170   -0.0014770    0.0398720   -0.1085476    0.4851425    0.8676717
   0.0179230   -0.0014950    0.0393860   -0.1014911    0.4991363    0.8605594
   0.0152230   -0.0013190    0.0391950   -0.0355165    0.5995955    0.7995147
   0.0137250   -0.0011260    0.0392460   -0.3139048    0.6576058    0.6848492
   0.0125880   -0.0015650    0.0383300   -0.8939528    0.3959248    0.2099810
   0.0242690   -0.0013010    0.0387020    0.8832711    0.3577748    0.3030335
   0.0233920   -0.0007330    0.0387650    0.3402722    0.8738785    0.3472047
   0.0208420   -0.0002790    0.0384910    0.0319847    0.9327159    0.3591909
   0.0183740   -0.0002790    0.0380560   -0.0163301    0.9385000    0.3448927
   0.0156290   -0.0000520    0.0376590   -0.0317653    0.9583172    0.2839351
   0.0144250   -0.0001090    0.0374250   -0.2384216    0.9476540    0.2123843
   0.0129900   -0.0006200    0.0369750   -0.8055066    0.5925866    0.0003656
   0.0244930   -0.0013010    0.0374310    0.9343883    0.3557550    0.0188919
   0.0236900   -0.0007330    0.0370710    0.3806088    0.8256606   -0.4164391
   0.0212000   -0.0002790    0.0364570    0.0609690    0.7719425   -0.6327618
   0.0187320   -0.0002790    0.0360220    0.1977193    0.8191204   -0.5384690
   0.0160170   -0.0000520    0.0354560    0.2589043    0.8804906   -0.3971208
   0.0148060   -0.0001090    0.0352650   -0.0567857    0.9166581   -0.3956177
   0.0133030   -0.0006200    0.0351960   -0.7764341    0.5364487   -0.3307157
   0.0246230   -0.0020380    0.0365380    0.9640446    0.1794587   -0.1959912
   0.0237960   -0.0017050    0.0358490    0.2469989    0.0536082   -0.9675318
   0.0216900   -0.0021080    0.0361340   -0.1071640   -0.3777469   -0.9196864
   0.0186710   -0.0021080    0.0356020    0.3477864   -0.1727808   -0.9215158
   0.0160960   -0.0017400    0.0345480    0.5958555    0.1758129   -0.7836109
   0.0148140   -0.0014420    0.0338360    0.1704352    0.3840855   -0.9074305
   0.0133210   -0.0018100    0.0341720   -0.7796653    0.2544067   -0.5721881
   0.0246300   -0.0030020    0.0363440    0.9639684   -0.1095223   -0.2424246
   0.0237410   -0.0030020    0.0355510    0.3763887    0.0151136   -0.9263385
   0.0218960   -0.0030020    0.0374160   -0.0922062    0.0123474   -0.9956634
   0.0183270   -0.0030020    0.0367860    0.3571491   -0.0561028   -0.9323610
   0.0159070   -0.0030020    0.0351590    0.5941544   -0.0602605   -0.8020905
   0.0146020   -0.0030020    0.0336570    0.1855472   -0.0227257   -0.9823725
   0.0131460   -0.0030020    0.0342480   -0.7890556    0.0270441   -0.6137262
   0.0242700   -0.0040180    0.0363890    0.9238670   -0.3656562   -0.1129841
   0.0234220   -0.0044570    0.0355250    0.5206125   -0.0202902   -0.8535520
   0.0213900   -0.0036680    0.0364520    0.0830080    0.3606687   -0.9289929
   0.0183350   -0.0036330    0.0359720    0.2749647    0.0877695   -0.9574398
   0.0158900   -0.0040880    0.0347970    0.5013831   -0.2651128   -0.8236080
   0.0144670   -0.0046330    0.0336600    0.0634883   -0.3872843   -0.9197718
   0.0132060   -0.0041580    0.0342100   -0.8295151   -0.1682607   -0.5325345
   0.0237690   -0.0048740    0.0372380    0.8730338   -0.4830393    0.0669697
   0.0228830   -0.0057820    0.0367320    0.3759713   -0.8242971   -0.4232965
   0.0206790   -0.0049880    0.0366490   -0.0816846   -0.7511076   -0.6551069
   0.0181510   -0.0048740    0.0362480    0.1822848   -0.8350425   -0.5191111
   0.0156650   -0.0053850    0.0356120    0.3900105   -0.8549335   -0.3420243
   0.0140860   -0.0061220    0.0350510   -0.0929686   -0.9098993   -0.4042774
   0.0130850   -0.0052710    0.0352010   -0.8786082   -0.3677140   -0.3046866
   0.0235220   -0.0048740    0.0386360    0.8269698   -0.5056487    0.2458461
   0.0225170   -0.0057820    0.0388080    0.1565964   -0.9457245    0.2847502
   0.0204180   -0.0049880    0.0381320   -0.2185973   -0.9549722    0.2006076
   0.0179050   -0.0048740    0.0376450    0.0314513   -0.9677118    0.2500893
   0.0153510   -0.0053850    0.0373920    0.2569370   -0.9186877    0.2999938
   0.0136760   -0.0061220    0.0373800   -0.2034931   -0.9517151    0.2298456
   0.0127860   -0.0052710    0.0368950   -0.9161223   -0.3960259   -0.0623176
   0.0234870   -0.0042290    0.0399100    0.7908624   -0.3931283    0.4690275
   0.0224150   -0.0046840    0.0404630    0.0673583   -0.6547846    0.7528080
   0.0203440   -0.0042990    0.0394690   -0.2670042   -0.6890920    0.6736920
   0.0177340   -0.0042470    0.0389230   -0.0579862   -0.6889192    0.7225150
   0.0151140   -0.0045100    0.0388900    0.1693862   -0.6258485    0.7613291
   0.0133390   -0.0049470    0.0392920   -0.2987413   -0.6442164    0.7040873
   0.0124930   -0.0044040    0.0382570   -0.9565489   -0.2697060    0.1107827
   0.0099060   -0.0030020    0.0494760    0.9610883   -0.1734704    0.2149819
   0.0093740   -0.0030020    0.0519970    0.8267796   -0.0794149    0.5568921
   0.0084880   -0.0030020    0.0525470    0.1324597   -0.0757952    0.9882861
   0.0067980   -0.0030020    0.0516850   -0.2509904   -0.1548173    0.9555289
   0.0045990   -0.0030020    0.0512250   -0.0994365   -0.1433329    0.9846665
   0.0024430   -0.0030020    0.0512690    0.1242152   -0.0415699    0.9913841
   0.0009370   -0.0030020    0.0518520   -0.3653689    0.0336911    0.9302529
   0.0002810   -0.0030020    0.0506060   -0.9818141    0.0327502    0.1869985
   0.0008060   -0.0030020    0.0478710   -0.9841923    0.0385072   -0.1728663
   0.0096430   -0.0019450    0.0513440    0.8538088    0.2044746    0.4787491
   0.0088220   -0.0016290    0.0517710    0.2790325    0.5463951    0.7896792
   0.0069080   -0.0016290    0.0514340   -0.0987943    0.5145519    0.8517488
   0.0048080   -0.0016450    0.0510350   -0.0884170    0.5292412    0.8438520
   0.0026120   -0.0014880    0.0509340   -0.0089001    0.6289768    0.7773731
   0.0013890   -0.0013140    0.0510340   -0.3313445    0.6870912    0.6466194
   0.0004900   -0.0017080    0.0501590   -0.9059932    0.3862291    0.1732149
   0.0100070   -0.0014710    0.0501500    0.8942419    0.3466318    0.2831570
   0.0092890   -0.0009600    0.0502410    0.3787680    0.8654287    0.3279757
   0.0072190   -0.0005510    0.0500500    0.0474248    0.9404267    0.3366728
   0.0052190   -0.0005510    0.0496970   -0.0070036    0.9468225    0.3216800
   0.0029930   -0.0003480    0.0493930   -0.0250240    0.9646017    0.2625211
   0.0020190   -0.0003980    0.0491990   -0.2546520    0.9487765    0.1870173
   0.0008610   -0.0008570    0.0487980   -0.8159550    0.5779244   -0.0148604
   0.0102310   -0.0014710    0.0488780    0.9376739    0.3455646    0.0367807
   0.0095880   -0.0009600    0.0485460    0.3976222    0.8295752   -0.3920479
   0.0075770   -0.0005510    0.0480180    0.0438540    0.7804961   -0.6236206
   0.0055780   -0.0005510    0.0476660    0.2105085    0.8282461   -0.5193213
   0.0033820   -0.0003480    0.0471900    0.2817668    0.8870055   -0.3658262
   0.0024000   -0.0003980    0.0470380   -0.0735140    0.9260217   -0.3702424
   0.0011750   -0.0008570    0.0470190   -0.7930180    0.5209511   -0.3158044
   0.0103670   -0.0021340    0.0479860    0.9706297    0.1792697   -0.1604383
   0.0097150   -0.0018340    0.0473270    0.2607388    0.0680866   -0.9630055
   0.0079870   -0.0021970    0.0476800   -0.1514679   -0.3803096   -0.9123717
   0.0055410   -0.0021970    0.0472490    0.3843681   -0.1769887   -0.9060553
   0.0034760   -0.0018670    0.0462840    0.6607980    0.1852000   -0.7273561
   0.0024530   -0.0015980    0.0456180    0.1657784    0.4190112   -0.8927189
   0.0012230   -0.0019300    0.0460010   -0.8069519    0.2444493   -0.5376553
   0.0103790   -0.0030020    0.0477920    0.9743896   -0.0961181   -0.2032885
   0.0096790   -0.0030020    0.0470340    0.4284361    0.0342264   -0.9029236
   0.0081130   -0.0030020    0.0489480   -0.1386157    0.0348472   -0.9897330
   0.0052220   -0.0030020    0.0484380    0.3990796   -0.0568020   -0.9151552
   0.0033020   -0.0030020    0.0468990    0.6596221   -0.0611280   -0.7491075
   0.0022860   -0.0030020    0.0454470    0.1848745   -0.0257176   -0.9824256
   0.0010780   -0.0030020    0.0460820   -0.8174560    0.0233801   -0.5755164
   0.0100830   -0.0039170    0.0478500    0.9377655   -0.3377532   -0.0807381
   0.0094180   -0.0043110    0.0470180    0.5605784   -0.0093822   -0.8280482
   0.0077320   -0.0036020    0.0480060    0.0632702    0.3754823   -0.9246675
   0.0052550   -0.0035690    0.0476270    0.2980793    0.0884960   -0.9504300
   0.0033000   -0.0039810    0.0465390    0.5583436   -0.2767367   -0.7820929
   0.0021750   -0.0044700    0.0454540    0.0525263   -0.4164198   -0.9076539
   0.0011290   -0.0040440    0.0460430   -0.8540669   -0.1597955   -0.4950103
   0.0096470   -0.0046870    0.0487100    0.8891370   -0.4505021    0.0805185
   0.0089410   -0.0055030    0.0482350    0.3859437   -0.8260342   -0.4107493
   0.0071450   -0.0047890    0.0482240   -0.1086118   -0.7530397   -0.6489489
   0.0050960   -0.0046870    0.0479080    0.1905345   -0.8445976   -0.5003513
   0.0030880   -0.0051460    0.0473570    0.4201814   -0.8534759   -0.3082638
   0.0018190   -0.0058100    0.0468500   -0.1041326   -0.9199126   -0.3780440
   0.0009980   -0.0050440    0.0470320   -0.8925297   -0.3474874   -0.2874774
   0.0094010   -0.0046870    0.0501080    0.8480490   -0.4743905    0.2361493
   0.0085750   -0.0055030    0.0503110    0.1700995   -0.9492056    0.2647166
   0.0068840   -0.0047890    0.0497080   -0.2341292   -0.9560048    0.1767434
   0.0048500   -0.0046870    0.0493050    0.0433873   -0.9719496    0.2311525
   0.0027750   -0.0051460    0.0491350    0.2917857   -0.9139585    0.2820301
   0.0014090   -0.0058100    0.0491790   -0.2052125   -0.9567011    0.2064239
   0.0006990   -0.0050440    0.0487270   -0.9243903   -0.3733868   -0.0780060
   0.0093300   -0.0041070    0.0513760    0.8191357   -0.3719280    0.4366764
   0.0084370   -0.0045170    0.0519620    0.0919422   -0.6828781    0.7247235
   0.0067800   -0.0041690    0.0510400   -0.2845284   -0.7157417    0.6377754
   0.0046690   -0.0041220    0.0505810   -0.0412235   -0.7181932    0.6946216
   0.0025330   -0.0043590    0.0506340    0.2209114   -0.6459568    0.7307106
   0.0010710   -0.0047530    0.0510910   -0.3019851   -0.6767057    0.6714718
   0.0004150   -0.0042640    0.0500900   -0.9641118   -0.2555592    0.0719585
   0.0477970   -0.0048230   -0.0219630    0.8692461   -0.4930346    0.0364430
   0.0443410   -0.0044670   -0.0139650    0.5163389   -0.2907104    0.8055319
   0.0377730   -0.0033130   -0.0144140   -0.1572496   -0.0536716    0.9860993
   0.0318910   -0.0022480   -0.0158570   -0.1475465   -0.2358756    0.9605169
   0.0249470   -0.0010040   -0.0170810    0.0771021   -0.1969270    0.9773817
   0.0131960    0.0009130   -0.0130780   -0.0920618   -0.0005571    0.9957531
   0.0083490    0.0018360   -0.0157540   -0.7598786    0.0989511    0.6424898
   0.0078570    0.0020680   -0.0204990   -0.9937647    0.1080376   -0.0275591
   0.0110970    0.0017480   -0.0284340   -0.9926344    0.0790377   -0.0918154
   0.0457590   -0.0013640   -0.0164640    0.6562571    0.5236978    0.5432009
   0.0397920   -0.0001880   -0.0173120    0.0666766    0.8569740    0.5110281
   0.0312680    0.0012960   -0.0188970    0.1774195    0.7460724    0.6417931
   0.0239150    0.0033910   -0.0187190    0.2061569    0.7754930    0.5967495
   0.0152920    0.0059080   -0.0183960    0.0798712    0.8741380    0.4790650
   0.0096260    0.0066640   -0.0198860   -0.2541222    0.7860415    0.5635252
   0.0077160    0.0058150   -0.0224770   -0.9757824    0.1669416    0.1413479
   0.0470200   -0.0004430   -0.0202850    0.6991956    0.6776602    0.2278202
   0.0415500    0.0003900   -0.0213120    0.1467950    0.9813260    0.1243002
   0.0304550    0.0025230   -0.0232060    0.3119718    0.9266772    0.2096258
   0.0231730    0.0064590   -0.0233630    0.2304068    0.9592283    0.1636879
   0.0168180    0.0065000   -0.0249540    0.1079386    0.9894610    0.0965207
   0.0106110    0.0080500   -0.0258590    0.0601733    0.9801556    0.1888760
   0.0076710    0.0079190   -0.0266590   -0.8894842    0.4556757    0.0343160
   0.0476400   -0.0004430   -0.0238040    0.7577280    0.6442716   -0.1037416
   0.0421490    0.0003900   -0.0247100    0.1722244    0.9600232   -0.2206675
   0.0310760    0.0025230   -0.0267250    0.3249699    0.8858254   -0.3312220
   0.0241790    0.0064590   -0.0290680    0.3268882    0.9060303   -0.2687996
   0.0176630    0.0065000   -0.0297480    0.2252522    0.9566660   -0.1845307
   0.0115210    0.0080500   -0.0310180    0.0316562    0.9588910   -0.2820034
   0.0084840    0.0079190   -0.0312730   -0.8953576    0.3158213   -0.3139933
   0.0465900   -0.0014440   -0.0275410    0.7615760    0.3836717   -0.5223007
   0.0411460   -0.0004450   -0.0285410    0.0666845    0.6352673   -0.7694080
   0.0331870    0.0003760   -0.0289200    0.1032875    0.3209134   -0.9414597
   0.0231130    0.0032670   -0.0325410    0.4499405    0.4583810   -0.7664466
   0.0179360    0.0044830   -0.0339450    0.4468969    0.6628579   -0.6007516
   0.0125450    0.0058100   -0.0355100   -0.1323561    0.5929643   -0.7942765
   0.0093560    0.0052470   -0.0341460   -0.9401135    0.0280359   -0.3397067
   0.0449950   -0.0040940   -0.0298480    0.6516866   -0.2543326   -0.7145765
   0.0395910   -0.0031180   -0.0311050   -0.1818127   -0.2385902   -0.9539491
   0.0348580   -0.0023550   -0.0292060   -0.2307317   -0.4878554   -0.8418789
   0.0214240    0.0000780   -0.0324850    0.3884259   -0.3179881   -0.8648751
   0.0175280    0.0008600   -0.0359070    0.5476880    0.0003747   -0.8366826
   0.0128240    0.0017310   -0.0376470   -0.1372405   -0.0099819   -0.9904875
   0.0096860    0.0021740   -0.0343520   -0.9510102   -0.0235483   -0.3082615
   0.0434950   -0.0068660   -0.0280450    0.3900688   -0.8086407   -0.4403936
   0.0390100   -0.0062570   -0.0292050   -0.3625432   -0.8066309   -0.4668073
   0.0355480   -0.0043390   -0.0273580   -0.4671303   -0.8485386   -0.2485388
   0.0239490   -0.0023050   -0.0294850    0.1435504   -0.8786300   -0.4554148
   0.0172920   -0.0027360   -0.0337310    0.4580532   -0.6199135   -0.6370986
   0.0134340   -0.0028030   -0.0358450   -0.0321291   -0.5671819   -0.8229656
   0.0092280   -0.0004050   -0.0334730   -0.9440232   -0.0352644   -0.3279888
   0.0420340   -0.0079590   -0.0247620    0.2425768   -0.9652062   -0.0976397
   0.0384210   -0.0077500   -0.0255860   -0.4613615   -0.8791500   -0.1193349
   0.0363750   -0.0049710   -0.0249150   -0.5516434   -0.8340770    0.0022743
   0.0268040   -0.0027460   -0.0263840   -0.0025568   -0.9970718   -0.0764281
   0.0170380   -0.0045070   -0.0296080    0.3382499   -0.9201304   -0.1973499
   0.0137790   -0.0058250   -0.0309950   -0.0732956   -0.9446474   -0.3197954
   0.0085940   -0.0021180   -0.0307210   -0.9623989   -0.1368379   -0.2346567
   0.0414240   -0.0079590   -0.0213020    0.1836944   -0.9797217    0.0800109
   0.0377470   -0.0077500   -0.0217640   -0.3416261   -0.9389007   -0.0419190
   0.0360540   -0.0049710   -0.0230940   -0.3799572   -0.9089280   -0.1717043
   0.0265580   -0.0027460   -0.0249880   -0.0312139   -0.9985998   -0.0427103
   0.0162780   -0.0045070   -0.0252980    0.1114305   -0.9863232    0.1214489
   0.0127400   -0.0058250   -0.0251080   -0.3296436   -0.9387720    0.1002112
   0.0079630   -0.0021180   -0.0271400   -0.9882818   -0.0896833   -0.1235154
   0.0425840   -0.0073180   -0.0170660    0.2179684   -0.9066847    0.3611269
   0.0374340   -0.0067100   -0.0174420   -0.2247514   -0.9141029    0.3374946
   0.0337200   -0.0051520   -0.0196120   -0.2447075   -0.9600481    0.1357417
   0.0255140   -0.0035130   -0.0213450   -0.0546270   -0.9630647    0.2636709
   0.0142730   -0.0041080   -0.0189040   -0.1224943   -0.8803120    0.4583076
   0.0100700   -0.0035490   -0.0193170   -0.6996430   -0.6304187    0.3362617
   0.0076100   -0.0010800   -0.0231910   -0.9895961    0.0904673   -0.1118714
   0.0387610   -0.0053880    0.0069070    0.8180277   -0.5127117    0.2606865
   0.0378330   -0.0053320    0.0103300    0.6154799   -0.3132821    0.7232142
   0.0348310   -0.0048230    0.0107690   -0.0517342   -0.0831650    0.9951920
   0.0283450   -0.0036380    0.0088500   -0.2246492   -0.1257332    0.9662939
   0.0201660   -0.0021710    0.0073120   -0.1668733   -0.1242988    0.9781120
   0.0123440   -0.0007880    0.0065150   -0.0685541   -0.0605506    0.9958082
   0.0071020    0.0001140    0.0067530   -0.2696883    0.0254294    0.9626119
   0.0042150    0.0006790    0.0046930   -0.9039050    0.1941105    0.3811521
   0.0050360    0.0006500    0.0009600   -0.9523047    0.2559639   -0.1661273
   0.0388550   -0.0036670    0.0095500    0.7361658    0.0250951    0.6763358
   0.0361330   -0.0026610    0.0098550    0.1346715    0.4922171    0.8599918
   0.0290410   -0.0013910    0.0086050   -0.0560042    0.4457732    0.8933923
   0.0212420   -0.0000210    0.0071900   -0.0508309    0.4581947    0.8873972
   0.0132620    0.0016660    0.0061750    0.0013140    0.5529346    0.8332236
   0.0089040    0.0027320    0.0058380   -0.1205607    0.6356815    0.7624789
   0.0051750    0.0027520    0.0042000   -0.7207141    0.6220362    0.3060099
   0.0398400   -0.0029750    0.0079970    0.8891907    0.2279126    0.3967314
   0.0374140   -0.0016710    0.0078670    0.3113639    0.8702566    0.3817145
   0.0299270    0.0003640    0.0067870    0.1388677    0.9042207    0.4038572
   0.0225200    0.0016910    0.0054810    0.1163135    0.9120444    0.3932508
   0.0143630    0.0034980    0.0041630    0.1177098    0.9353068    0.3336848
   0.0107290    0.0040620    0.0034920    0.0173324    0.9584813    0.2846283
   0.0062290    0.0040860    0.0024290   -0.5903747    0.8055227    0.0509012
   0.0401470   -0.0029750    0.0062520    0.9735413    0.2281886   -0.0121390
   0.0378240   -0.0016710    0.0055440    0.3948267    0.8046338   -0.4434821
   0.0304190    0.0003640    0.0039990    0.2219841    0.7548393   -0.6172039
   0.0230120    0.0016910    0.0026930    0.2871972    0.7905939   -0.5408133
   0.0148960    0.0034980    0.0011410    0.3204002    0.8484429   -0.4212936
   0.0112510    0.0040620    0.0005290    0.1653821    0.9047727   -0.3924732
   0.0066590    0.0040860   -0.0000120   -0.5607686    0.7624018   -0.3229274
   0.0400900   -0.0040680    0.0049840    0.9640294    0.0179231   -0.2651907
   0.0375470   -0.0030740    0.0037930    0.2149540    0.0303824   -0.9761515
   0.0313000   -0.0026070    0.0035920   -0.0384346   -0.3600230   -0.9321514
   0.0222380   -0.0009850    0.0019940    0.2240839   -0.1807558   -0.9576606
   0.0144360    0.0010070   -0.0002040    0.4155868    0.1269536   -0.9006500
   0.0105310    0.0021880   -0.0015600    0.2307440    0.3357889   -0.9132377
   0.0061170    0.0023830   -0.0015150   -0.6045652    0.4885537   -0.6291392
   0.0398070   -0.0055010    0.0046680    0.8595183   -0.3730470   -0.3493769
   0.0369610   -0.0049650    0.0032940    0.2589713   -0.0431040   -0.9649227
   0.0320350   -0.0041750    0.0054300    0.0349843   -0.0111209   -0.9993260
   0.0213180   -0.0022560    0.0035410    0.2471769   -0.0717395   -0.9663110
   0.0137190   -0.0008450    0.0005530    0.3753201   -0.1009274   -0.9213840
   0.0094480   -0.0000270   -0.0019450    0.1786830   -0.0217019   -0.9836673
   0.0053090    0.0006790   -0.0015110   -0.6776975    0.1969819   -0.7084661
   0.0384910   -0.0068430    0.0045860    0.6774740   -0.7024170   -0.2182642
   0.0356290   -0.0069800    0.0031010    0.3553465   -0.1019938   -0.9291534
   0.0300970   -0.0048220    0.0038890    0.1870200    0.3456090   -0.9195531
   0.0209510   -0.0031320    0.0023550    0.2334974    0.0761109   -0.9693741
   0.0132840   -0.0024340   -0.0000150    0.2854325   -0.2862168   -0.9146629
   0.0086220   -0.0024030   -0.0020530    0.0431495   -0.3479740   -0.9365106
   0.0051770   -0.0010860   -0.0016020   -0.7676266   -0.0878097   -0.6348534
   0.0370250   -0.0079440    0.0056140    0.5839925   -0.8117558   -0.0023042
   0.0340330   -0.0087980    0.0046060    0.1180395   -0.8717300   -0.4755560
   0.0277070   -0.0064490    0.0039100   -0.1128535   -0.7317291   -0.6721880
   0.0201610   -0.0049240    0.0026400   -0.0017708   -0.8233630   -0.5675124
   0.0125100   -0.0043360    0.0010200    0.0891960   -0.8967844   -0.4333842
   0.0074990   -0.0045680   -0.0002530   -0.1839097   -0.8748001   -0.4482209
   0.0048060   -0.0027830   -0.0002780   -0.8693525   -0.3407385   -0.3579433
   0.0366870   -0.0079440    0.0075300    0.5300035   -0.8184070    0.2220501
   0.0335310   -0.0087980    0.0074530   -0.0880211   -0.9605938    0.2636511
   0.0273480   -0.0064490    0.0059430   -0.2988220   -0.9308910    0.2101127
   0.0198230   -0.0049240    0.0045560   -0.1743199   -0.9560186    0.2358834
   0.0120800   -0.0043360    0.0034600   -0.0568563   -0.9593528    0.2764227
   0.0069350   -0.0045680    0.0029430   -0.3132604   -0.9199866    0.2355687
   0.0043960   -0.0027830    0.0020460   -0.9243741   -0.3806722   -0.0249256
   0.0371060   -0.0070750    0.0093600    0.5283926   -0.6714659    0.5195525
   0.0339760   -0.0072510    0.0098270   -0.1345045   -0.6437515    0.7533210
   0.0276830   -0.0055010    0.0078560   -0.3111985   -0.6418554    0.7008403
   0.0198370   -0.0040110    0.0063540   -0.2116154   -0.6550575    0.7253403
   0.0120240   -0.0030370    0.0055650   -0.0963751   -0.6332148    0.7679524
   0.0067790   -0.0028060    0.0056200   -0.3454489   -0.5887998    0.7307392
   0.0041340   -0.0014540    0.0039390   -0.9508204   -0.2150414    0.2229299
   0.0216960   -0.0040870    0.0203990    0.8368492   -0.4849511    0.2539800
   0.0207990   -0.0040370    0.0238280    0.6372046   -0.2987071    0.7104536
   0.0180810   -0.0035800    0.0243170   -0.0383806   -0.0857566    0.9955766
   0.0122570   -0.0025130    0.0225140   -0.2279455   -0.1249220    0.9656269
   0.0048970   -0.0011930    0.0211200   -0.1639461   -0.1247016    0.9785557
  -0.0021520    0.0000520    0.0204590   -0.0562247   -0.0623128    0.9964717
  -0.0068900    0.0008650    0.0207860   -0.2782555    0.0281196    0.9600954
  -0.0094620    0.0013720    0.0187820   -0.9104020    0.1914432    0.3667666
  -0.0086580    0.0013470    0.0150470   -0.9542755    0.2481379   -0.1666908
   0.0217660   -0.0023630    0.0230390    0.7529906    0.0331313    0.6571967
   0.0193130   -0.0014050    0.0233900    0.1535670    0.4861661    0.8602672
   0.0129290   -0.0002630    0.0222640   -0.0538152    0.4452066    0.8938093
   0.0059100    0.0009680    0.0209870   -0.0483652    0.4577215    0.8877791
  -0.0012740    0.0025140    0.0201120    0.0065596    0.5519149    0.8338746
  -0.0051970    0.0035020    0.0198520   -0.1301316    0.6371737    0.7596548
  -0.0085490    0.0034540    0.0182810   -0.7359169    0.6065580    0.3008551
   0.0226960   -0.0016600    0.0214730    0.8945077    0.2291460    0.3838594
   0.0205230   -0.0004030    0.0213900    0.3320590    0.8615918    0.3839224
   0.0137920    0.0014980    0.0204420    0.1438278    0.9030222    0.4048018
   0.0071250    0.0026920    0.0192670    0.1186072    0.9115930    0.3936122
  -0.0002120    0.0043520    0.0180930    0.1188108    0.9351009    0.3338717
  -0.0034840    0.0048520    0.0174870    0.0066525    0.9592692    0.2824152
  -0.0075420    0.0047960    0.0165020   -0.6070443    0.7931392    0.0492691
   0.0230030   -0.0016600    0.0197310    0.9735291    0.2283783   -0.0091927
   0.0209330   -0.0004030    0.0190660    0.4106482    0.7989515   -0.4393683
   0.0142830    0.0014980    0.0176550    0.2197137    0.7554760   -0.6172374
   0.0076170    0.0026920    0.0164790    0.2923168    0.7896850   -0.5393964
   0.0003200    0.0043520    0.0150730    0.3297818    0.8462267   -0.4185025
  -0.0029610    0.0048520    0.0145230    0.1584696    0.9059181   -0.3926828
