NORM_ASCII
1545 1652
  -0.2454210   -0.2492910   -0.0056900   -0.5297451   -0.0973821   -0.8425479
  -0.2449400   -0.2434940   -0.0067540   -0.6384835   -0.2139226   -0.7393078
  -0.2449680   -0.2378420   -0.0084990   -0.7536340   -0.1761145   -0.6332610
  -0.2452000   -0.2320890   -0.0079450   -0.4713620    0.7626940   -0.4428496
  -0.2431660   -0.2997010    0.0041090   -0.2751511   -0.9119556   -0.3043498
  -0.2451340   -0.2953770    0.0006440   -0.6894232   -0.4578946   -0.5612737
  -0.2465490   -0.2901050   -0.0014410   -0.7597771   -0.2334287   -0.6068360
  -0.2469560   -0.2842850   -0.0019360   -0.8287988   -0.1609015   -0.5359136
  -0.2472090   -0.2783550   -0.0019380   -0.8884693   -0.1707339   -0.4259955
  -0.2477830   -0.2725150   -0.0021620   -0.9071206   -0.1108933   -0.4059987
  -0.2481060   -0.2666830   -0.0026310   -0.9067467   -0.0310787   -0.4205288
  -0.2479540   -0.2608370   -0.0032330   -0.9187499    0.0203590   -0.3943147
  -0.2474480   -0.2550120   -0.0037950   -0.9425528    0.0438279   -0.3311695
  -0.2469230   -0.2491810   -0.0042270   -0.9655344    0.0242531   -0.2591431
  -0.2466880   -0.2433210   -0.0045280   -0.9702718   -0.0466943   -0.2374707
  -0.2468150   -0.2375170   -0.0054020   -0.9657373   -0.0114709   -0.2592678
  -0.2459330   -0.2319720   -0.0059730   -0.5547771    0.8005990   -0.2264148
  -0.2431920   -0.2999040    0.0068250    0.1631090   -0.8792753    0.4475159
  -0.2474970   -0.2957840    0.0091720   -0.5077712   -0.4708529    0.7214333
  -0.2473340   -0.2899680    0.0091960   -0.7458378   -0.0027038    0.6661221
  -0.2479230   -0.2844280    0.0067820   -0.8341559    0.1772101    0.5222839
  -0.2481350   -0.2786740    0.0049190   -0.8664366    0.1232754    0.4838293
  -0.2485500   -0.2729020    0.0031180   -0.8776019    0.0854062    0.4717210
  -0.2484290   -0.2670100    0.0018510   -0.8411130    0.0989797    0.5317255
  -0.2477020   -0.2610290    0.0010930   -0.8018873    0.1297213    0.5832230
  -0.2468460   -0.2550750    0.0004550   -0.8026126    0.1388445    0.5801166
  -0.2460720   -0.2490920   -0.0000790   -0.8303582    0.1080070    0.5466623
  -0.2458610   -0.2431000   -0.0007330   -0.8723973    0.0419970    0.4869900
  -0.2467750   -0.2370840   -0.0015790   -0.9074667   -0.0057895    0.4200842
  -0.2468500   -0.2312830   -0.0005500   -0.5002141    0.8568161    0.1251080
  -0.2435160   -0.2983360    0.0087710    0.2524318   -0.4875251    0.8358214
  -0.2433420   -0.2926790    0.0081830    0.0923452   -0.0061595    0.9957080
  -0.2432300   -0.2870220    0.0079220    0.0323125    0.1685527    0.9851629
  -0.2439460   -0.2815300    0.0066250   -0.0101997    0.3058928    0.9520113
  -0.2447010   -0.2760320    0.0051850   -0.0333375    0.2600941    0.9650076
  -0.2448810   -0.2704230    0.0042120   -0.0588490    0.1988862    0.9782541
  -0.2444920   -0.2648200    0.0033060   -0.0298346    0.1607215    0.9865488
  -0.2437980   -0.2592440    0.0023950   -0.1038319    0.1384042    0.9849179
  -0.2432850   -0.2536110    0.0018110   -0.2736606    0.1121463    0.9552660
  -0.2429400   -0.2479270    0.0016400   -0.3765220    0.0692745    0.9238140
  -0.2424960   -0.2422540    0.0018190   -0.4168248    0.0295449    0.9085066
  -0.2424710   -0.2365650    0.0017590   -0.3755774   -0.0834599    0.9230255
  -0.2416150   -0.2310610    0.0029030   -0.1857918    0.7742564    0.6049863
  -0.2391640   -0.2994580    0.0013800    0.2993738   -0.9450652   -0.1312518
  -0.2349420   -0.2953420    0.0008760    0.8930895   -0.4480094   -0.0409724
  -0.2340610   -0.2899850    0.0004260    0.9624815    0.1543116   -0.2231979
  -0.2373290   -0.2847530    0.0007640    0.8548323    0.3248396   -0.4046492
  -0.2400110   -0.2797930   -0.0006450    0.8826845    0.1182577   -0.4548442
  -0.2408010   -0.2741830   -0.0019080    0.8692168   -0.0363516   -0.4930930
  -0.2407770   -0.2682350   -0.0028440    0.8688895   -0.0584468   -0.4915435
  -0.2408130   -0.2622600   -0.0033900    0.8869203   -0.0816728   -0.4546449
  -0.2404740   -0.2564390   -0.0038650    0.8823193   -0.1786572   -0.4354242
  -0.2389980   -0.2507970   -0.0047830    0.8646966   -0.2573760   -0.4313436
  -0.2377410   -0.2451650   -0.0059690    0.8282256   -0.3414313   -0.4443727
  -0.2361310   -0.2397190   -0.0075630    0.8559937   -0.2540583   -0.4502545
  -0.2357130   -0.2339150   -0.0079200    0.6847923    0.6430367   -0.3428751
  -0.2403170   -0.2332860   -0.0036360    0.1434339    0.9804859   -0.1344398
  -0.2411460   -0.2994000    0.0045660   -0.0642493   -0.9916431    0.1118752
  -0.2390900   -0.3652170   -0.0088350   -0.9496939    0.3131709   -0.0023398
  -0.2350180   -0.3646660   -0.0128920   -0.1883326    0.6532431   -0.7333514
  -0.2332560   -0.3644050   -0.0088530    0.8614119    0.4969946    0.1047181
  -0.2357040   -0.3664520   -0.0043140   -0.2858875    0.4307731    0.8559807
  -0.2342330   -0.3815040   -0.0087880    0.2509803   -0.6206796   -0.7428093
  -0.2329950   -0.3793830   -0.0070260    0.9862123    0.1487426   -0.0725322
  -0.2338650   -0.3764960   -0.0075220    0.9605917    0.2619050   -0.0931094
  -0.2351010   -0.3782320   -0.0098280    0.1022233   -0.2108778   -0.9721527
  -0.2339700   -0.3735370   -0.0083070    0.9975747    0.0625608   -0.0305095
  -0.2357320   -0.3744840   -0.0102160    0.0957168   -0.1956819   -0.9759851
  -0.2339560   -0.3704360   -0.0085690    0.9857416   -0.1669768    0.0207886
  -0.2356590   -0.3711150   -0.0109810    0.1707788   -0.3003155   -0.9384270
  -0.2332070   -0.3674950   -0.0090710    0.9879736   -0.1499673    0.0376561
  -0.2349430   -0.3681440   -0.0126940    0.2070228   -0.2472865   -0.9465680
  -0.2337230   -0.3822690   -0.0062440    0.8500254   -0.5262545    0.0226473
  -0.2332240   -0.3807560   -0.0046400    0.6574743   -0.1649962    0.7351897
  -0.2339490   -0.3783920   -0.0049440    0.1999193    0.2337933    0.9515109
  -0.2348000   -0.3760560   -0.0053300    0.0133612    0.3190212    0.9476534
  -0.2359060   -0.3737560   -0.0059290   -0.0887544    0.1762269    0.9803401
  -0.2359880   -0.3714320   -0.0054220    0.0078839   -0.1909294    0.9815721
  -0.2357180   -0.3688810   -0.0050890    0.0637730   -0.2950039    0.9533655
  -0.2341180   -0.3826800   -0.0056160   -0.2229144   -0.8505046    0.4763938
  -0.2359430   -0.3806950   -0.0070730   -0.8553649   -0.4710679    0.2155131
  -0.2372390   -0.3779410   -0.0079290   -0.9717191   -0.2336866   -0.0339502
  -0.2376110   -0.3747140   -0.0084150   -0.9842919   -0.1111908   -0.1371352
  -0.2378650   -0.3714980   -0.0089460   -0.9698599   -0.1945551   -0.1466971
  -0.2388050   -0.3684630   -0.0093970   -0.9690082   -0.2219735   -0.1084016
  -0.2373480   -0.3389250   -0.0068680   -0.0523920    0.4237340    0.9042702
  -0.2420510   -0.3396080   -0.0096570   -0.8029962    0.3678221    0.4689392
  -0.2423940   -0.3397560   -0.0138440   -0.9016941    0.2895744   -0.3210833
  -0.2385220   -0.3397830   -0.0178270   -0.0868607    0.2770294   -0.9569273
  -0.2342120   -0.3392970   -0.0141060    0.8527175    0.1847868   -0.4885967
  -0.2334830   -0.3390320   -0.0089540    0.8213986    0.3491820    0.4509726
  -0.2374810   -0.3652790   -0.0105010   -0.6642579   -0.7358995    0.1311996
  -0.2364150   -0.3641260   -0.0074400   -0.4324666   -0.6908583    0.5793854
  -0.2344660   -0.3646970   -0.0081690    0.4087528   -0.9126345   -0.0044164
  -0.2371580   -0.3655610   -0.0106120    0.0917187   -0.9378383   -0.3347343
  -0.2345340   -0.3638900   -0.0055710    0.3156462   -0.8352717    0.4502096
  -0.2314520   -0.3611960   -0.0065070    0.7410064    0.0104001    0.6714174
  -0.2337660   -0.3610270   -0.0097150    0.8922661   -0.1110015   -0.4376526
  -0.2339090   -0.3575300   -0.0067160    0.7286400    0.3822935    0.5682741
  -0.2350690   -0.3566800   -0.0104720    0.8921077    0.2723467   -0.3605152
  -0.2352490   -0.3531750   -0.0074490    0.8592213    0.1608834    0.4856494
  -0.2360120   -0.3523590   -0.0112300    0.9456536    0.0927291   -0.3116738
  -0.2355980   -0.3481750   -0.0084280    0.8945747   -0.0148680    0.4466710
  -0.2361050   -0.3478870   -0.0119140    0.9553186   -0.1029330   -0.2770759
  -0.2351890   -0.3435190   -0.0087190    0.8693788   -0.1618598    0.4668853
  -0.2352100   -0.3435880   -0.0130880    0.8950645   -0.2818861   -0.3455428
  -0.2357700   -0.3639480   -0.0058260   -0.2316458   -0.4429391    0.8661092
  -0.2360680   -0.3597340   -0.0061470   -0.2352051   -0.0208723    0.9717216
  -0.2367180   -0.3555780   -0.0066420   -0.1233815    0.0405164    0.9915319
  -0.2374540   -0.3514510   -0.0071960   -0.0111737    0.0683783    0.9975969
  -0.2373400   -0.3472520   -0.0073820    0.0223020    0.0436477    0.9987980
  -0.2374100   -0.3429940   -0.0071880   -0.0081021   -0.0469872    0.9988626
  -0.2382560   -0.3604150   -0.0081390   -0.7316935   -0.2025244    0.6508521
  -0.2391440   -0.3562520   -0.0080190   -0.7602768   -0.0772925    0.6449846
  -0.2396190   -0.3519550   -0.0080660   -0.7877399   -0.0103492    0.6159211
  -0.2403090   -0.3477980   -0.0087980   -0.8364750   -0.0222939    0.5475514
  -0.2413300   -0.3437930   -0.0098450   -0.8458818   -0.1080298    0.5223156
  -0.2394930   -0.3615220   -0.0106630   -0.9279421   -0.2719520   -0.2548835
  -0.2401680   -0.3571340   -0.0113340   -0.9253781   -0.1243671   -0.3580617
  -0.2404500   -0.3527500   -0.0120530   -0.9217265   -0.1779839   -0.3445896
  -0.2408520   -0.3484110   -0.0130070   -0.9098115   -0.1971738   -0.3651925
  -0.2416440   -0.3440860   -0.0133740   -0.9121568   -0.2407872   -0.3316496
  -0.2357490   -0.3628360   -0.0134860    0.2494520   -0.1861627   -0.9503248
  -0.2366640   -0.3581450   -0.0128090    0.2312811   -0.0135922   -0.9727920
  -0.2375740   -0.3535310   -0.0141220    0.2233970   -0.1813896   -0.9577012
  -0.2377410   -0.3487560   -0.0151470    0.1904174   -0.3087106   -0.9319007
  -0.2377030   -0.3442340   -0.0168590    0.0436134   -0.4095261   -0.9112553
  -0.2334890   -0.3358980   -0.0168300    0.7601649   -0.3382012   -0.5547695
  -0.2340810   -0.3359460   -0.0156280    0.8766628   -0.0725665    0.4756011
  -0.2359570   -0.3304060   -0.0145270    0.9469720    0.2409716    0.2125482
  -0.2362670   -0.3309690   -0.0173200    0.8585427    0.2876393   -0.4244621
  -0.2370580   -0.3249040   -0.0144440    0.9907350    0.1332046    0.0264709
  -0.2386230   -0.3260840   -0.0172520    0.9370415    0.2025268   -0.2844926
  -0.2382450   -0.3192750   -0.0150380    0.9945012    0.0777675    0.0701403
  -0.2387750   -0.3200910   -0.0175700    0.9037089    0.0178417   -0.4277755
  -0.2383230   -0.3135070   -0.0150770    0.9875710   -0.0583635    0.1459355
  -0.2382850   -0.3139530   -0.0180580    0.8995892   -0.1083292   -0.4230888
  -0.2374630   -0.3077860   -0.0157270    0.9430577   -0.3318584    0.0226333
  -0.2374730   -0.3081840   -0.0184810    0.8459876   -0.2600762   -0.4654732
  -0.2348920   -0.3027080   -0.0159390    0.9469551   -0.2843773   -0.1496853
  -0.2355610   -0.3027190   -0.0184700    0.7868144   -0.1999408   -0.5839064
  -0.2348190   -0.2972310   -0.0166410    0.6072467    0.7937001   -0.0359386
  -0.2364390   -0.2970350   -0.0193970    0.4514531    0.6736210   -0.5851708
  -0.2358180   -0.3347050   -0.0132500    0.9060869   -0.0129098    0.4228945
  -0.2378640   -0.3297510   -0.0132820    0.7703343    0.2889123    0.5684319
  -0.2382480   -0.3241820   -0.0130210    0.8997780    0.1046528    0.4236123
  -0.2388890   -0.3187120   -0.0127750    0.9658370    0.0282849    0.2576023
  -0.2390340   -0.3132180   -0.0125470    0.9511314   -0.0216103    0.3080292
  -0.2384080   -0.3076650   -0.0124580    0.9102072   -0.3134575    0.2706793
  -0.2353920   -0.3033090   -0.0118300    0.9318631   -0.2835515    0.2263400
  -0.2355630   -0.2978250   -0.0119750    0.6214187    0.7562025    0.2049308
  -0.2376880   -0.3394540   -0.0133550    0.6021107   -0.7899111    0.1162033
  -0.2380990   -0.3395260   -0.0112640    0.5487719   -0.8357659   -0.0185683
  -0.2351730   -0.3362870   -0.0087210    0.6049103   -0.3157048    0.7310362
  -0.2380310   -0.3314970   -0.0088600    0.3790019    0.2567581    0.8890629
  -0.2400370   -0.3261390   -0.0093310    0.4497344    0.0772683    0.8898138
  -0.2397550   -0.3202540   -0.0090800    0.5392392   -0.0209569    0.8418918
  -0.2400640   -0.3144570   -0.0091150    0.6145123   -0.0556388    0.7869428
  -0.2397180   -0.3085570   -0.0093240    0.6097428   -0.2591311    0.7490426
  -0.2372080   -0.3035390   -0.0082040    0.5927498   -0.2213331    0.7743768
  -0.2368010   -0.2978250   -0.0082650    0.3586145    0.7942995    0.4903917
  -0.2387930   -0.3396190   -0.0099400   -0.0900966   -0.6767894    0.7306426
  -0.2394140   -0.3344280   -0.0093730   -0.4838952   -0.0591092    0.8731274
  -0.2401910   -0.3292200   -0.0094020   -0.4199612   -0.0987933    0.9021488
  -0.2408970   -0.3240160   -0.0094360   -0.3655305   -0.0693209    0.9282144
  -0.2417390   -0.3187800   -0.0094660   -0.3922116   -0.0351436    0.9192034
  -0.2423450   -0.3135350   -0.0093850   -0.2981316   -0.0659393    0.9522445
  -0.2415800   -0.3083960   -0.0087170   -0.2497471   -0.1379215    0.9584383
  -0.2415780   -0.3032990   -0.0075060   -0.3075126   -0.0743870    0.9486319
  -0.2412920   -0.2981300   -0.0076460   -0.2413217    0.7592741    0.6043730
  -0.2420000   -0.3384470   -0.0113430   -0.7178330   -0.6047656    0.3449267
  -0.2415230   -0.3334000   -0.0116010   -0.8982712   -0.1745788    0.4032754
  -0.2422710   -0.3284490   -0.0111850   -0.8700659   -0.2113713    0.4453173
  -0.2434030   -0.3235120   -0.0108840   -0.8434008   -0.1843338    0.5046743
  -0.2442330   -0.3185250   -0.0110770   -0.8727011   -0.0903465    0.4798231
  -0.2446160   -0.3134860   -0.0112670   -0.8822596   -0.0594140    0.4669988
  -0.2450250   -0.3084370   -0.0114220   -0.8990999   -0.0676830    0.4324794
  -0.2456780   -0.3034240   -0.0115850   -0.9136271   -0.0047882    0.4065250
  -0.2451500   -0.2984130   -0.0111790   -0.5495414    0.7437630    0.3805533
  -0.2390340   -0.3394970   -0.0153660   -0.4376025   -0.8720937   -0.2189900
  -0.2411560   -0.3346620   -0.0147840   -0.9106287   -0.3092641   -0.2740641
  -0.2420860   -0.3292530   -0.0144870   -0.9477499   -0.2248156   -0.2263363
  -0.2435130   -0.3240120   -0.0144690   -0.9520400   -0.2058344   -0.2263892
  -0.2444370   -0.3186770   -0.0147420   -0.9626780   -0.1260144   -0.2395232
  -0.2449090   -0.3132380   -0.0150590   -0.9631339   -0.0807945   -0.2566035
  -0.2454300   -0.3078210   -0.0153390   -0.9608128   -0.1226962   -0.2485645
  -0.2457820   -0.3024130   -0.0159360   -0.9733822   -0.0044493   -0.2291447
  -0.2451900   -0.2970590   -0.0151570   -0.5524682    0.8335060    0.0068287
  -0.2374040   -0.3391700   -0.0162860    0.0104972   -0.6582273   -0.7527460
  -0.2395990   -0.3337920   -0.0169110   -0.5334914   -0.2591327   -0.8051318
  -0.2410830   -0.3286140   -0.0168330   -0.6632607   -0.2153168   -0.7167454
  -0.2421670   -0.3233580   -0.0170600   -0.6325219   -0.1566860   -0.7585285
  -0.2426520   -0.3180650   -0.0179450   -0.5719466   -0.1106040   -0.8128000
  -0.2425530   -0.3127160   -0.0187740   -0.5449583   -0.1031582   -0.8320931
  -0.2424240   -0.3073760   -0.0195290   -0.5220627   -0.1639637   -0.8369985
  -0.2432570   -0.3021990   -0.0207860   -0.4997889    0.0147035   -0.8660224
  -0.2426670   -0.2970080   -0.0197490   -0.2273988    0.8900723   -0.3950457
  -0.2375400   -0.3336220   -0.0170350   -0.0672894   -0.1256381   -0.9897915
  -0.2388230   -0.3285480   -0.0177820    0.0973016    0.0146259   -0.9951475
  -0.2395330   -0.3233650   -0.0183250    0.4261431    0.0722693   -0.9017645
  -0.2395690   -0.3180730   -0.0187460    0.2919758   -0.0857245   -0.9525762
  -0.2396290   -0.3127850   -0.0192650    0.2396062   -0.1389241   -0.9608793
  -0.2393360   -0.3075780   -0.0201410    0.2861958   -0.1741373   -0.9422145
  -0.2382180   -0.3024860   -0.0207920    0.3597146   -0.0364687   -0.9323494
  -0.2393850   -0.2984330   -0.0145140   -0.0296049    0.9941350    0.1040153
  -0.2394520   -0.2987100   -0.0094840    0.2546264   -0.5924968    0.7642728
  -0.2391140   -0.2999640   -0.0116060    0.1663919   -0.9293575    0.3295578
  -0.2434560   -0.2963620   -0.0087800   -0.4941700   -0.5751829    0.6518900
  -0.2393290   -0.2932500   -0.0093780    0.0922762   -0.1318035    0.9869716
  -0.2433450   -0.2908250   -0.0080470   -0.7455840   -0.0945760    0.6596665
  -0.2392690   -0.2878290   -0.0089480    0.0310635    0.0492613    0.9983027
  -0.2439850   -0.2852610   -0.0097690   -0.8357666    0.1086974    0.5382184
  -0.2400350   -0.2824480   -0.0095670   -0.0127479    0.1948300    0.9807542
  -0.2442490   -0.2795570   -0.0109170   -0.8675063    0.0577166    0.4940664
  -0.2408390   -0.2770430   -0.0103280   -0.0355325    0.1458882    0.9886628
  -0.2447170   -0.2738440   -0.0120020   -0.8783637    0.0201442    0.4775681
  -0.2410710   -0.2715850   -0.0106110   -0.0604122    0.0808646    0.9948926
  -0.2446500   -0.2680780   -0.0125420   -0.8419833    0.0269669    0.5388292
  -0.2407330   -0.2661350   -0.0108270   -0.0311945    0.0406247    0.9986874
  -0.2439770   -0.2622840   -0.0125650   -0.8029008    0.0525502    0.5937919
  -0.2400900   -0.2607080   -0.0110500   -0.1051224    0.0171295    0.9943117
  -0.2431760   -0.2565280   -0.0124720   -0.8035730    0.0623410    0.5919324
  -0.2396290   -0.2552680   -0.0109440   -0.2746510   -0.0078137    0.9615122
  -0.2424560   -0.2507600   -0.0122720   -0.8311604    0.0344324    0.5549655
  -0.2393350   -0.2498320   -0.0104210   -0.3770975   -0.0491952    0.9248661
  -0.2423000   -0.2449710   -0.0121910   -0.8727545   -0.0266409    0.4874320
  -0.2389420   -0.2444470   -0.0095510   -0.4170555   -0.0887029    0.9045421
  -0.2432690   -0.2391470   -0.0122990   -0.9073896   -0.0677304    0.4147973
  -0.2389700   -0.2390220   -0.0089180   -0.3746282   -0.2066173    0.9038600
  -0.2433960   -0.2337490   -0.0105710   -0.5115271    0.8272468    0.2323847
  -0.2381640   -0.2339110   -0.0071110   -0.1959042    0.6842874    0.7024047
  -0.2390890   -0.2994400   -0.0142760   -0.2644723   -0.8736599   -0.4083782
  -0.2410960   -0.2949180   -0.0171910   -0.6798722   -0.4049221   -0.6114015
  -0.2425600   -0.2896560   -0.0186190   -0.7562289   -0.1710366   -0.6315570
  -0.2430190   -0.2840570   -0.0184030   -0.8268359   -0.1059928   -0.5523657
  -0.2433270   -0.2784120   -0.0176820   -0.8861951   -0.1306438   -0.4445115
  -0.2439540   -0.2728280   -0.0171940   -0.9057531   -0.0716109   -0.4177118
  -0.2443300   -0.2672190   -0.0169500   -0.9063865    0.0127321   -0.4222576
  -0.2442310   -0.2615770   -0.0168350   -0.9188183    0.0624641   -0.3897065
  -0.2437780   -0.2559580   -0.0166820   -0.9427688    0.0784694   -0.3240827
  -0.2433060   -0.2503480   -0.0164000   -0.9656774    0.0488215   -0.2551148
  -0.2431250   -0.2447280   -0.0159850   -0.9697559   -0.0273125   -0.2425438
  -0.2433050   -0.2390950   -0.0161460   -0.9655968    0.0120013   -0.2597669
  -0.2424730   -0.2337380   -0.0160360   -0.5643554    0.8158833   -0.1258469
  -0.2388480   -0.2992820   -0.0160000   -0.0707183   -0.8169862   -0.5723045
  -0.2377940   -0.2945510   -0.0191040   -0.2304123   -0.2325780   -0.9448903
  -0.2373740   -0.2890520   -0.0201650   -0.0252471    0.2253889   -0.9739417
  -0.2388120   -0.2835000   -0.0199040    0.0425246    0.2705153   -0.9617760
  -0.2408100   -0.2781640   -0.0198300   -0.2288672   -0.0803184   -0.9701385
  -0.2425110   -0.2728130   -0.0189580   -0.4200982   -0.0737845   -0.9044741
  -0.2431670   -0.2672510   -0.0180950   -0.4538684   -0.0051880   -0.8910536
  -0.2429820   -0.2615610   -0.0177700   -0.4466179    0.0369358   -0.8939621
  -0.2424140   -0.2559080   -0.0177810   -0.4621361    0.0512860   -0.8853248
  -0.2418040   -0.2502610   -0.0178630   -0.5289340    0.0012870   -0.8486620
  -0.2413760   -0.2446070   -0.0182130   -0.6359408   -0.1329770   -0.7601950
  -0.2414550   -0.2390130   -0.0192570   -0.7516270   -0.1084111   -0.6506180
  -0.2417390   -0.2336040   -0.0180060   -0.4823515    0.8044450   -0.3467062
  -0.2347620   -0.2980110   -0.0183460    0.0120126   -0.8293926   -0.5585371
  -0.2311720   -0.2940400   -0.0206280    0.4466451   -0.3713878   -0.8139897
  -0.2314380   -0.2883920   -0.0203120    0.6224180    0.3969637   -0.6745485
  -0.2358110   -0.2853500   -0.0181300    0.6414744    0.4950357   -0.5860463
  -0.2373330   -0.2794960   -0.0179490    0.5624918    0.1241240   -0.8174327
  -0.2381750   -0.2735880   -0.0184210    0.3548970   -0.0377216   -0.9341441
  -0.2387990   -0.2679950   -0.0188390    0.2548097   -0.0293757   -0.9665449
  -0.2388170   -0.2622360   -0.0189510    0.3036732    0.0103025   -0.9527205
  -0.2381620   -0.2564280   -0.0188930    0.2995148   -0.0431395   -0.9531159
  -0.2370060   -0.2507030   -0.0189480    0.2164530   -0.1390926   -0.9663340
  -0.2364190   -0.2450880   -0.0198410    0.1186068   -0.2670396   -0.9563589
  -0.2364630   -0.2395950   -0.0218320    0.0808366   -0.2054116   -0.9753315
  -0.2358700   -0.2339620   -0.0225170    0.2194824    0.8419445   -0.4929066
  -0.2350890   -0.2988420   -0.0169510    0.2976546   -0.9236688   -0.2413248
  -0.2309050   -0.2948240   -0.0169450    0.8916833   -0.4425337   -0.0952093
  -0.2300730   -0.2896600   -0.0167380    0.9601366    0.1956966   -0.1996008
  -0.2333890   -0.2847480   -0.0157690    0.8474413    0.3928759   -0.3570599
  -0.2361160   -0.2798760   -0.0165660    0.8807125    0.1879495   -0.4347649
  -0.2369570   -0.2743860   -0.0171370    0.8695645    0.0331637   -0.4927045
  -0.2369870   -0.2686080   -0.0173420    0.8694333    0.0101231   -0.4939467
  -0.2370780   -0.2628520   -0.0171550    0.8875904   -0.0183605   -0.4602675
  -0.2367920   -0.2572480   -0.0169180    0.8832419   -0.1209977   -0.4530379
  -0.2353680   -0.2517500   -0.0171400    0.8653462   -0.2027596   -0.4583280
  -0.2341610   -0.2462310   -0.0176290    0.8280858   -0.2875539   -0.4812345
  -0.2326010   -0.2408370   -0.0185470    0.8566579   -0.1966348   -0.4769402
  -0.2322360   -0.2352630   -0.0181930    0.6782238    0.6872208   -0.2602690
  -0.2320840   -0.2961350   -0.0107540    0.8323869   -0.5114725    0.2133728
  -0.2315050   -0.2907560   -0.0118070    0.9624430    0.1669605    0.2140738
  -0.2337090   -0.2850520   -0.0121430    0.9043350    0.3902493    0.1728690
  -0.2353760   -0.2796190   -0.0125480    0.9470041    0.2569222    0.1928060
  -0.2361300   -0.2740170   -0.0137070    0.9835896    0.0727193    0.1651166
  -0.2364100   -0.2682740   -0.0143180    0.9930569   -0.0192910    0.1160429
  -0.2363340   -0.2625070   -0.0139580    0.9927965   -0.0853960    0.0840398
  -0.2356250   -0.2568040   -0.0134260    0.9798867   -0.1165353    0.1619926
  -0.2346960   -0.2510910   -0.0134240    0.9542199   -0.1483913    0.2597006
  -0.2335490   -0.2454400   -0.0133480    0.8993263   -0.3671691    0.2374849
  -0.2311810   -0.2403860   -0.0117360    0.8998928   -0.4341723    0.0410773
  -0.2306340   -0.2350130   -0.0107170    0.7933151    0.5828881   -0.1757629
  -0.2358730   -0.2996800   -0.0128180    0.1090261   -0.9656287    0.2359546
  -0.2355440   -0.2991080   -0.0117590   -0.1234897   -0.7443175    0.6563092
  -0.2329840   -0.2951370   -0.0082400    0.3740229   -0.2990811    0.8778709
  -0.2323670   -0.2893450   -0.0082820    0.6110931    0.1267229    0.7813492
  -0.2345520   -0.2840980   -0.0102490    0.5816686    0.3280985    0.7443205
  -0.2368840   -0.2786840   -0.0113520    0.5573246    0.2159227    0.8017273
  -0.2379620   -0.2728730   -0.0113950    0.6202447    0.0629874    0.7818754
  -0.2376570   -0.2670190   -0.0120390    0.6751257   -0.0238661    0.7373165
  -0.2369160   -0.2611690   -0.0121610    0.6146284   -0.0721880    0.7855068
  -0.2366600   -0.2553800   -0.0111180    0.4526600   -0.0847085    0.8876505
  -0.2370920   -0.2496640   -0.0099450    0.3631280   -0.1239816    0.9234537
  -0.2366970   -0.2436370   -0.0091310    0.2907039   -0.3018586    0.9079497
  -0.2334450   -0.2391510   -0.0074600    0.3655087   -0.5147014    0.7755552
  -0.2302530   -0.2342540   -0.0069090    0.5958580    0.7063620    0.3821072
  -0.2368460   -0.2352250   -0.0138710    0.1292352    0.9915748   -0.0088109
  -0.2370720   -0.2991910   -0.0137840   -0.0551132   -0.9984090   -0.0119141
  -0.2344520   -0.3407440   -0.0339170   -0.8898200    0.4541027   -0.0448462
  -0.2308850   -0.3407110   -0.0370250   -0.0421264    0.6949053   -0.7178663
  -0.2296340   -0.3408140   -0.0336330    0.9181427    0.3567651    0.1724316
  -0.2320970   -0.3422730   -0.0301000   -0.2707388    0.4446572    0.8538036
  -0.2325320   -0.3545360   -0.0341530    0.2004479   -0.6303053   -0.7500239
  -0.2313600   -0.3530140   -0.0325890    0.9999472   -0.0009697   -0.0102321
  -0.2316830   -0.3505570   -0.0329460    0.9929402    0.1152725   -0.0279639
  -0.2327790   -0.3517540   -0.0349430    0.1297224   -0.1959868   -0.9719883
  -0.2313640   -0.3481300   -0.0335010    0.9955869   -0.0892084    0.0291310
  -0.2328070   -0.3486320   -0.0351740    0.1259422   -0.1800072   -0.9755696
  -0.2309570   -0.3456160   -0.0336190    0.9462156   -0.3156928    0.0708104
  -0.2322950   -0.3458970   -0.0356920    0.1817461   -0.2959977   -0.9377386
  -0.2299640   -0.3433170   -0.0339040    0.9499345   -0.2997078    0.0883164
  -0.2312630   -0.3435400   -0.0369670    0.2260068   -0.2487252   -0.9418369
  -0.2323440   -0.3552780   -0.0320730    0.7582767   -0.6498944    0.0515152
  -0.2318360   -0.3541530   -0.0306910    0.5781912   -0.2839328    0.7649033
  -0.2321160   -0.3521420   -0.0309010    0.1730469    0.1735370    0.9695049
  -0.2324970   -0.3501350   -0.0311850    0.0021369    0.2860324    0.9582176
  -0.2330770   -0.3481220   -0.0316550   -0.1221181    0.1596655    0.9795887
  -0.2328830   -0.3462420   -0.0311730   -0.0820386   -0.2178818    0.9725211
  -0.2323680   -0.3442190   -0.0308090   -0.0407424   -0.3284723    0.9436345
  -0.2327460   -0.3555760   -0.0315900   -0.3775021   -0.8198899    0.4304331
  -0.2339030   -0.3537070   -0.0328060   -0.9281610   -0.3412792    0.1484780
  -0.2345680   -0.3512960   -0.0334810   -0.9917936   -0.0819262   -0.0981504
  -0.2344470   -0.3486270   -0.0337970   -0.9793415    0.0439997   -0.1973682
  -0.2342290   -0.3459790   -0.0341440   -0.9770362   -0.0404556   -0.2091976
  -0.2345930   -0.3433940   -0.0344630   -0.9827016   -0.0686534   -0.1720010
  -0.2340700   -0.3203040   -0.0319200   -0.0345550    0.3776488    0.9253039
  -0.2379280   -0.3204950   -0.0342590   -0.7828892    0.3927174    0.4825531
  -0.2381820   -0.3204160   -0.0376930   -0.8782883    0.3629134   -0.3112934
  -0.2349840   -0.3204660   -0.0409310   -0.0591203    0.3324027   -0.9412828
  -0.2314660   -0.3204560   -0.0378410    0.8676036    0.1560074   -0.4721501
  -0.2308990   -0.3205010   -0.0336100    0.8373426    0.2717638    0.4743436
  -0.2355120   -0.3416580   -0.0360530   -0.7106675   -0.6981218    0.0870498
  -0.2346050   -0.3409060   -0.0334920   -0.4810485   -0.6918099    0.5385085
  -0.2330350   -0.3414420   -0.0341030    0.3504451   -0.9352193   -0.0505293
  -0.2352610   -0.3419010   -0.0361540    0.0357820   -0.9226533   -0.3839667
  -0.2330710   -0.3408920   -0.0319420    0.2577862   -0.8763260    0.4069387
  -0.2304040   -0.3388120   -0.0325720    0.7333896   -0.0724999    0.6759316
  -0.2322600   -0.3384140   -0.0352020    0.8878836   -0.1439927   -0.4369540
  -0.2322220   -0.3356810   -0.0325950    0.7456274    0.3044649    0.5927402
  -0.2330950   -0.3347640   -0.0356370    0.9110804    0.2338928   -0.3394505
  -0.2330860   -0.3320240   -0.0330110    0.8626927    0.0800151    0.4993585
  -0.2336370   -0.3311530   -0.0360730    0.9527327    0.0488201   -0.2998615
  -0.2331050   -0.3278810   -0.0335940    0.8872624   -0.0953195    0.4513087
  -0.2334750   -0.3274670   -0.0364360    0.9497186   -0.1485237   -0.2756363
  -0.2325280   -0.3240870   -0.0336250    0.8526933   -0.2413684    0.4633093
  -0.2325120   -0.3239520   -0.0372030    0.8790206   -0.3193050   -0.3540722
  -0.2340820   -0.3408640   -0.0321600   -0.2679017   -0.4728832    0.8394106
  -0.2341060   -0.3373940   -0.0322380   -0.2459366   -0.0576484    0.9675701
  -0.2344180   -0.3339450   -0.0324640   -0.1305743   -0.0044694    0.9914285
  -0.2348020   -0.3305120   -0.0327400   -0.0168576    0.0159500    0.9997307
  -0.2344900   -0.3270810   -0.0327080    0.0149305   -0.0109694    0.9998284
  -0.2343290   -0.3236090   -0.0323610   -0.0211684   -0.0994811    0.9948143
  -0.2359140   -0.3377490   -0.0339110   -0.7496113   -0.1900258    0.6340134
  -0.2364250   -0.3343090   -0.0336340   -0.7701200   -0.0630291    0.6347776
  -0.2365910   -0.3307730   -0.0334860   -0.7929667    0.0070757    0.6092240
  -0.2369340   -0.3273110   -0.0339060   -0.8417314    0.0018954    0.5398931
  -0.2375540   -0.3239420   -0.0345930   -0.8563075   -0.0816676    0.5099685
  -0.2369610   -0.3384790   -0.0360310   -0.9406247   -0.1985638   -0.2753138
  -0.2372810   -0.3348310   -0.0363910   -0.9277350   -0.0461681   -0.3703732
  -0.2372790   -0.3312060   -0.0367880   -0.9276017   -0.1004246   -0.3598192
  -0.2373750   -0.3276000   -0.0373800   -0.9166802   -0.1191925   -0.3814323
  -0.2377960   -0.3240120   -0.0374940   -0.9221013   -0.1644167   -0.3502805
  -0.2339440   -0.3396240   -0.0383780    0.2467755   -0.1508205   -0.9572643
  -0.2344560   -0.3357750   -0.0376230    0.2397367    0.0234803   -0.9705540
  -0.2349510   -0.3319030   -0.0384990    0.2211741   -0.1441199   -0.9645266
  -0.2348310   -0.3279510   -0.0391290    0.1800334   -0.2701950   -0.9458238
  -0.2345520   -0.3241850   -0.0403300    0.0270289   -0.3623694   -0.9316426
  -0.2310390   -0.3169670   -0.0398460    0.7600620   -0.3061786   -0.5732019
  -0.2315240   -0.3170630   -0.0388650    0.8766373   -0.0998479    0.4706776
  -0.2330610   -0.3125820   -0.0377050    0.9469731    0.2283484    0.2260506
  -0.2333150   -0.3129120   -0.0400170    0.8586596    0.3112918   -0.4071869
  -0.2339630   -0.3080850   -0.0373800    0.9907523    0.1313740    0.0339235
  -0.2352450   -0.3089190   -0.0397330    0.9371457    0.2183452   -0.2721826
  -0.2349350   -0.3034520   -0.0376030    0.9945099    0.0736095    0.0743748
  -0.2353700   -0.3040010   -0.0397130    0.9038264    0.0421552   -0.4258178
  -0.2349990   -0.2987320   -0.0373660    0.9875653   -0.0665823    0.1424137
  -0.2349670   -0.2989570   -0.0398250    0.8997290   -0.0840547   -0.4282785
  -0.2342940   -0.2940210   -0.0376300    0.9430206   -0.3327141    0.0036670
  -0.2343020   -0.2942180   -0.0399010    0.8460601   -0.2331957   -0.4793767
  -0.2321860   -0.2898570   -0.0375660    0.9468991   -0.2755235   -0.1657371
  -0.2327350   -0.2897490   -0.0396370    0.7867572   -0.1664660   -0.5943922
  -0.2321260   -0.2853440   -0.0378850    0.6072423    0.7944623    0.0092980
  -0.2334540   -0.2850550   -0.0401300    0.4514976    0.7058308   -0.5458506
  -0.2329470   -0.3161590   -0.0368620    0.9059845   -0.0371923    0.4216739
  -0.2346230   -0.3121040   -0.0366570    0.7702687    0.2559207    0.5841153
  -0.2349370   -0.3075610   -0.0361830    0.8998105    0.0801957    0.4288470
  -0.2354620   -0.3030970   -0.0357260    0.9658719    0.0135008    0.2586681
  -0.2355810   -0.2986130   -0.0352830    0.9511770   -0.0391586    0.3061519
  -0.2350680   -0.2940750   -0.0349510    0.9102044   -0.3284641    0.2522682
  -0.2325960   -0.2905410   -0.0342330    0.9318388   -0.2960951    0.2097717
  -0.2327360   -0.2860480   -0.0340950    0.6214639    0.7432673    0.2476617
  -0.2344800   -0.3200380   -0.0371700    0.6019442   -0.7953840    0.0709049
  -0.2348170   -0.3201950   -0.0354620    0.5487598   -0.8333487   -0.0662771
  -0.2324190   -0.3176640   -0.0332310    0.6048018   -0.3569504    0.7118998
  -0.2347610   -0.3137390   -0.0331210    0.3790490    0.2055289    0.9022637
  -0.2364040   -0.3093340   -0.0332560    0.4498511    0.0262806    0.8927168
  -0.2361720   -0.3045310   -0.0327750    0.5392191   -0.0689741    0.8393363
  -0.2364250   -0.2997870   -0.0325330    0.6145475   -0.1004878    0.7824535
  -0.2361410   -0.2949510   -0.0324280    0.6097993   -0.3015306    0.7329557
  -0.2340840   -0.2908990   -0.0312780    0.5927808   -0.2652046    0.7604455
  -0.2337500   -0.2862210   -0.0310600    0.3585861    0.7650817    0.5348514
  -0.2353850   -0.3203330   -0.0343840   -0.0900333   -0.7173874    0.6908324
  -0.2358940   -0.3161130   -0.0336780   -0.4839049   -0.1087912    0.8683320
  -0.2365300   -0.3118510   -0.0334580   -0.4198012   -0.1501053    0.8951175
  -0.2371080   -0.3075920   -0.0332420   -0.3653721   -0.1221161    0.9228168
  -0.2377980   -0.3033070   -0.0330220   -0.3922252   -0.0874394    0.9157040
  -0.2382940   -0.2990200   -0.0327110   -0.2981789   -0.1201028    0.9469238
  -0.2376670   -0.2948480   -0.0319240   -0.2497661   -0.1924011    0.9489988
  -0.2376650   -0.2907350   -0.0306950   -0.3075599   -0.1283328    0.9428349
  -0.2374310   -0.2865000   -0.0305680   -0.2414281    0.7236494    0.6465632
  -0.2380130   -0.3193080   -0.0354770   -0.7178001   -0.6234731    0.3099102
  -0.2376220   -0.3151670   -0.0354520   -0.8982220   -0.1972675    0.3927885
  -0.2382340   -0.3111370   -0.0348800   -0.8700939   -0.2363394    0.4325279
  -0.2391620   -0.3071120   -0.0344030   -0.8434361   -0.2127522    0.4933072
  -0.2398410   -0.3030230   -0.0343280   -0.8726693   -0.1175282    0.4739573
  -0.2401550   -0.2988930   -0.0342480   -0.8822676   -0.0858107    0.4628612
  -0.2404890   -0.2947550   -0.0341390   -0.8991197   -0.0922158    0.4278784
  -0.2410250   -0.2906460   -0.0340380   -0.9136525   -0.0279009    0.4055374
  -0.2405910   -0.2865660   -0.0334720   -0.5495085    0.7209538    0.4222155
  -0.2355830   -0.3199790   -0.0388170   -0.4376640   -0.8581587   -0.2683540
  -0.2373210   -0.3160520   -0.0381150   -0.9106627   -0.2930803   -0.2911999
  -0.2380830   -0.3116400   -0.0376190   -0.9477934   -0.2114251   -0.2387195
  -0.2392510   -0.3073530   -0.0373590   -0.9520748   -0.1925402   -0.2376589
  -0.2400090   -0.3029760   -0.0373330   -0.9626970   -0.1121122   -0.2462629
  -0.2403950   -0.2985120   -0.0373390   -0.9631537   -0.0658683   -0.2607610
  -0.2408210   -0.2940680   -0.0373140   -0.9608227   -0.1082796   -0.2551376
  -0.2411100   -0.2896160   -0.0375500   -0.9733907    0.0086349   -0.2289890
  -0.2406240   -0.2852730   -0.0366630   -0.5524286    0.8317814    0.0544279
  -0.2342470   -0.3196690   -0.0395540    0.0104669   -0.6142461   -0.7890451
  -0.2360460   -0.3152400   -0.0398140   -0.5335182   -0.2127723   -0.8185880
  -0.2372610   -0.3110080   -0.0395080   -0.6633850   -0.1740887   -0.7277455
  -0.2381490   -0.3066980   -0.0394490   -0.6326192   -0.1131397   -0.7661543
  -0.2385460   -0.3023260   -0.0399250   -0.5719818   -0.0639862   -0.8177669
  -0.2384650   -0.2979120   -0.0403530   -0.5450556   -0.0554605   -0.8365635
  -0.2383580   -0.2935080   -0.0407210   -0.5221490   -0.1159278   -0.8449385
  -0.2390410   -0.2892140   -0.0415080   -0.4997656    0.0640973   -0.8637858
  -0.2385570   -0.2850160   -0.0404170   -0.2273721    0.9111938   -0.3435518
  -0.2343590   -0.3150960   -0.0399070   -0.0673165   -0.0690161   -0.9953418
  -0.2354090   -0.3109100   -0.0402820    0.0972422    0.0712258   -0.9927088
  -0.2359900   -0.3066440   -0.0404840    0.4264344    0.1236253   -0.8960304
  -0.2360200   -0.3022950   -0.0405810    0.2921471   -0.0312367   -0.9558631
  -0.2360680   -0.2979460   -0.0407580    0.2397283   -0.0839293   -0.9672054
  -0.2358280   -0.2936450   -0.0412320    0.2863039   -0.1201653   -0.9505737
  -0.2349120   -0.2894490   -0.0415260    0.3597894    0.0167264   -0.9328836
  -0.2358680   -0.2864270   -0.0362000   -0.0296115    0.9865882    0.1605207
  -0.2386910   -0.2867640   -0.0344470    0.2547718   -0.7266673    0.6380016
  -0.2384140   -0.2874430   -0.0363490    0.1665682   -0.9749717    0.1472589
  -0.2419720   -0.2849840   -0.0335150   -0.4942137   -0.6883146    0.5310139
  -0.2385900   -0.2823870   -0.0335130    0.0922714   -0.3165589    0.9440744
  -0.2418810   -0.2806430   -0.0320650   -0.7455456   -0.2179374    0.6298135
  -0.2385400   -0.2780930   -0.0323250    0.0310705   -0.1409961    0.9895225
  -0.2424050   -0.2758990   -0.0325850   -0.8357825    0.0047193    0.5490404
  -0.2391680   -0.2736670   -0.0319860   -0.0127715    0.0052544    0.9999046
  -0.2426210   -0.2711310   -0.0326230   -0.8675895   -0.0368830    0.4959114
  -0.2398270   -0.2692010   -0.0317580   -0.0355446   -0.0442705    0.9983871
  -0.2430040   -0.2663670   -0.0326080   -0.8784297   -0.0707210    0.4726096
  -0.2400160   -0.2647660   -0.0311370   -0.0604039   -0.1093441    0.9921669
  -0.2429490   -0.2616450   -0.0321460   -0.8420191   -0.0756989    0.5341100
  -0.2397390   -0.2603480   -0.0304640   -0.0312697   -0.1495467    0.9882601
  -0.2423970   -0.2569790   -0.0312640   -0.8028882   -0.0609970    0.5930008
  -0.2392110   -0.2559480   -0.0298000   -0.1050524   -0.1718238    0.9795104
  -0.2417400   -0.2523640   -0.0302940   -0.8035705   -0.0509740    0.5930228
  -0.2388330   -0.2515870   -0.0288690   -0.2746257   -0.1900485    0.9425828
  -0.2411490   -0.2477540   -0.0292370   -0.8311285   -0.0714349    0.5514730
  -0.2385920   -0.2472950   -0.0276030   -0.3772193   -0.2236360    0.8987172
  -0.2410210   -0.2431100   -0.0282720   -0.8727279   -0.1185964    0.4735830
  -0.2382700   -0.2430980   -0.0260670   -0.4171126   -0.2586644    0.8712691
  -0.2418150   -0.2384070   -0.0274530   -0.9074279   -0.1450853    0.3943665
  -0.2382930   -0.2388320   -0.0247140   -0.3746657   -0.3743640    0.8482200
  -0.2419190   -0.2343330   -0.0252240   -0.5114500    0.7682026    0.3850760
  -0.2376320   -0.2350020   -0.0224660   -0.1958632    0.5385736    0.8194975
  -0.2383940   -0.2866060   -0.0384160   -0.2644497   -0.7803015   -0.5667415
  -0.2400380   -0.2825150   -0.0400580   -0.6799372   -0.2815198   -0.6770761
  -0.2412370   -0.2780600   -0.0403890   -0.7562780   -0.0480893   -0.6524807
  -0.2416130   -0.2735890   -0.0393440   -0.8268130    0.0008220   -0.5624763
  -0.2418650   -0.2691590   -0.0378880   -0.8861373   -0.0437511   -0.4613529
  -0.2423780   -0.2647430   -0.0366270   -0.9056945    0.0090946   -0.4238334
  -0.2426860   -0.2602680   -0.0355580   -0.9063756    0.0925968   -0.4122003
  -0.2426050   -0.2557470   -0.0345890   -0.9188011    0.1353042   -0.3708063
  -0.2422330   -0.2512500   -0.0335930   -0.9427525    0.1386268   -0.3033154
  -0.2418460   -0.2467810   -0.0324940   -0.9657020    0.0963142   -0.2411290
  -0.2416980   -0.2423240   -0.0312860   -0.9697522    0.0193358   -0.2433244
  -0.2418440   -0.2377680   -0.0305400   -0.9655863    0.0611673   -0.2527877
  -0.2411620   -0.2334750   -0.0296190   -0.5643570    0.8249411    0.0311991
  -0.2381970   -0.2862110   -0.0397780   -0.0707052   -0.6935957   -0.7168861
  -0.2373330   -0.2819230   -0.0415400   -0.2304284   -0.0491567   -0.9718469
  -0.2369880   -0.2773330   -0.0415390   -0.0253285    0.4059413   -0.9135481
  -0.2381660   -0.2729070   -0.0404660    0.0423466    0.4479512   -0.8930546
  -0.2398030   -0.2686260   -0.0395760   -0.2289127    0.1052455   -0.9677409
  -0.2411960   -0.2644560   -0.0380430   -0.4201261    0.0992231   -0.9020248
  -0.2417330   -0.2601160   -0.0364840   -0.4539294    0.1639244   -0.8758292
  -0.2415820   -0.2555890   -0.0353390   -0.4465601    0.2058727   -0.8707471
  -0.2411150   -0.2510390   -0.0344690   -0.4620364    0.2183229   -0.8595682
  -0.2406150   -0.2464830   -0.0336580   -0.5288501    0.1623016   -0.8330521
  -0.2402640   -0.2418810   -0.0330600   -0.6358774    0.0137878   -0.7716669
  -0.2403280   -0.2372180   -0.0330300   -0.7516668    0.0169570   -0.6593250
  -0.2405610   -0.2330610   -0.0311830   -0.4824028    0.8555866   -0.1877740
  -0.2348480   -0.2848240   -0.0414680    0.0118642   -0.7082638   -0.7058482
  -0.2319070   -0.2812750   -0.0426860    0.4466164   -0.2102963   -0.8696604
  -0.2321240   -0.2767800   -0.0415550    0.6224187    0.5175417   -0.5871504
  -0.2357070   -0.2746710   -0.0393260    0.6415078    0.5972296   -0.4814400
  -0.2369530   -0.2699900   -0.0382710    0.5625501    0.2769822   -0.7789854
  -0.2376430   -0.2651630   -0.0377320    0.3548088    0.1401122   -0.9243805
  -0.2381540   -0.2605990   -0.0371990    0.2548257    0.1545018   -0.9545643
  -0.2381680   -0.2559490   -0.0363940    0.3037306    0.1908692   -0.9334435
  -0.2376320   -0.2512850   -0.0354440    0.2994335    0.1383845   -0.9440282
  -0.2366840   -0.2466710   -0.0345990    0.2164680    0.0467543   -0.9751695
  -0.2362020   -0.2420150   -0.0344440    0.1186198   -0.0807163   -0.9896536
  -0.2362380   -0.2372870   -0.0351920    0.0807595   -0.0167481   -0.9965929
  -0.2357520   -0.2326480   -0.0348680    0.2195086    0.9201197   -0.3243388
  -0.2351160   -0.2857100   -0.0404750    0.2975255   -0.8611356   -0.4122185
  -0.2316880   -0.2824780   -0.0398460    0.8916663   -0.4164678   -0.1774422
  -0.2310050   -0.2783560   -0.0388760    0.9601724    0.2298796   -0.1588220
  -0.2337220   -0.2745540   -0.0373330    0.8475320    0.4534487   -0.2758149
  -0.2359570   -0.2705110   -0.0372170    0.8808062    0.2669658   -0.3910368
  -0.2366450   -0.2660060   -0.0368230    0.8695941    0.1259438   -0.4774350
  -0.2366690   -0.2613250   -0.0360900    0.8694835    0.1036095   -0.4829737
  -0.2367440   -0.2567240   -0.0350450    0.8875921    0.0692478   -0.4553955
  -0.2365090   -0.2522520   -0.0339830    0.8832035   -0.0329527   -0.4678309
  -0.2353410   -0.2477940   -0.0333070    0.8653146   -0.1122119   -0.4885070
  -0.2343530   -0.2432790   -0.0328430    0.8280500   -0.1910630   -0.5270940
  -0.2330740   -0.2387960   -0.0327430    0.8566242   -0.1026573   -0.5056248
  -0.2327740   -0.2343670   -0.0315920    0.6782717    0.7240666   -0.1251998
  -0.2326540   -0.2844950   -0.0350690    0.8323757   -0.5426838    0.1124500
  -0.2321790   -0.2800040   -0.0350800    0.9624491    0.1232203    0.2418851
  -0.2339850   -0.2753620   -0.0344630    0.9043491    0.3502807    0.2438361
  -0.2353500   -0.2709280   -0.0339440    0.9469962    0.2155643    0.2381813
  -0.2359670   -0.2662420   -0.0340060    0.9835777    0.0399480    0.1760087
  -0.2361970   -0.2615270   -0.0336050    0.9930560   -0.0410348    0.1102538
  -0.2361340   -0.2569430   -0.0324190    0.9927892   -0.0998282    0.0663615
  -0.2355530   -0.2524380   -0.0311040    0.9798497   -0.1452859    0.1370638
  -0.2347910   -0.2478420   -0.0302150    0.9541847   -0.1950592    0.2268996
  -0.2338510   -0.2433080   -0.0292750    0.8992935   -0.4056239    0.1635253
  -0.2319100   -0.2394920   -0.0271930    0.8998544   -0.4341587   -0.0420512
  -0.2314620   -0.2353280   -0.0255380    0.7933264    0.6056435   -0.0618807
  -0.2357580   -0.2870260   -0.0372800    0.1089360   -0.9928668    0.0484618
  -0.2354890   -0.2867300   -0.0363390   -0.1234027   -0.8553829    0.5030824
  -0.2333910   -0.2840830   -0.0328910    0.3740282   -0.4602203    0.8051709
  -0.2328850   -0.2794170   -0.0320240    0.6110901   -0.0238532    0.7912016
  -0.2346750   -0.2748900   -0.0327910    0.5815804    0.1808569    0.7931299
  -0.2365860   -0.2703620   -0.0328370    0.5572177    0.0598216    0.8282088
  -0.2374690   -0.2656800   -0.0319690    0.6202262   -0.0865925    0.7796289
  -0.2372180   -0.2608710   -0.0315760    0.6751195   -0.1633876    0.7193874
  -0.2366110   -0.2561460   -0.0307650    0.6146080   -0.2199002    0.7575625
  -0.2364010   -0.2516510   -0.0290270    0.4526524   -0.2516379    0.8554438
  -0.2367540   -0.2472340   -0.0271940    0.3630095   -0.2968969    0.8832193
  -0.2364310   -0.2425120   -0.0256030    0.2905387   -0.4686088    0.8342620
  -0.2337650   -0.2391630   -0.0235610    0.3654053   -0.6525881    0.6637828
  -0.2311500   -0.2353100   -0.0223560    0.5957668    0.6210182    0.5093115
  -0.2365520   -0.2350080   -0.0281080    0.1292989    0.9752262    0.1794872
  -0.2367410   -0.2864820   -0.0379810   -0.0551680   -0.9780104   -0.2011272
  -0.2375800   -0.2237690    0.0186970   -0.9472128    0.0754683   -0.3115966
  -0.2365070   -0.2196170    0.0189540   -0.7740144    0.5879216   -0.2350529
  -0.2344580   -0.2217630    0.0158900   -0.5060080    0.3652333   -0.7813837
  -0.2356350   -0.2253180    0.0148120   -0.7208026   -0.2263617   -0.6551366
  -0.2309010   -0.2210940    0.0152660   -0.1334686    0.6080179   -0.7826241
  -0.2323100   -0.2252990    0.0119640   -0.3492539   -0.2188520   -0.9111122
  -0.2284050   -0.2246390    0.0108370    0.1324057    0.0240621   -0.9909035
  -0.2279340   -0.2207550    0.0159550    0.3266165    0.7073412   -0.6268893
  -0.2251610   -0.2238310    0.0139070    0.7832334    0.2264060   -0.5790387
  -0.2247600   -0.2216040    0.0182810    0.8824065    0.3875398   -0.2667800
  -0.2265500   -0.2183880    0.0186690    0.5595890    0.7902577   -0.2497057
  -0.2312380   -0.2167080    0.0173590   -0.0516356    0.9723314   -0.2278274
  -0.2328270   -0.2176810    0.0216750   -0.1341697    0.7842708    0.6057373
  -0.2274650   -0.2188840    0.0225880    0.4947249    0.6851384    0.5346332
  -0.2325910   -0.2220540    0.0257580   -0.2763100    0.6049026    0.7468237
  -0.2280080   -0.2229190    0.0257580    0.3898959    0.5953047    0.7025621
  -0.2313710   -0.2277860    0.0303020   -0.3143078    0.5602371    0.7663844
  -0.2278050   -0.2271130    0.0296790    0.3459120    0.6256461    0.6992224
  -0.2296590   -0.2365380    0.0373640   -0.3489881    0.6094944    0.7118454
  -0.2263060   -0.2363990    0.0377130    0.2309276    0.6982196    0.6776148
  -0.2366810   -0.2228340    0.0229620   -0.7296744    0.4193946    0.5400772
  -0.2356490   -0.2256010    0.0248500   -0.7988944    0.2582821    0.5431925
  -0.2347590   -0.2300450    0.0282860   -0.8436256    0.2479079    0.4762745
  -0.2340680   -0.2385680    0.0347740   -0.9011431    0.2310753    0.3668042
  -0.2373740   -0.2259520    0.0211020   -0.9244981   -0.3628810    0.1167075
  -0.2335370   -0.2402910    0.0333880   -0.9069743   -0.3332453   -0.2575757
  -0.2349120   -0.2269650    0.0176880   -0.5492471   -0.8041771   -0.2272153
  -0.2341480   -0.2280610    0.0208100   -0.5051369   -0.7888096   -0.3501658
  -0.2364400   -0.2270590    0.0230010   -0.9073551   -0.4164581    0.0571781
  -0.2329000   -0.2324590    0.0253440   -0.4855996   -0.6588442   -0.5745583
  -0.2351130   -0.2313760    0.0268500   -0.9443972   -0.3045549   -0.1239367
  -0.2316170   -0.2408290    0.0325780   -0.4900010   -0.6048597   -0.6277291
  -0.2290360   -0.2410960    0.0319250   -0.0593483   -0.6628814   -0.7463685
  -0.2302420   -0.2326380    0.0239990   -0.1196732   -0.7324889   -0.6701778
  -0.2309100   -0.2293980    0.0202580   -0.2279708   -0.8728338   -0.4314980
  -0.2317180   -0.2274030    0.0151190   -0.2529632   -0.8907312   -0.3776342
  -0.2283530   -0.2277720    0.0148790    0.2085348   -0.8609564   -0.4639690
  -0.2257980   -0.2406330    0.0323010    0.6025478   -0.4761291   -0.6404977
  -0.2230920   -0.2372830    0.0361500    0.9379648    0.3250362    0.1207211
  -0.2273360   -0.2328990    0.0247840    0.5488659   -0.6022433   -0.5796975
  -0.2244680   -0.2283190    0.0281020    0.9733985    0.1721098    0.1512399
  -0.2271720   -0.2294590    0.0202650    0.4769925   -0.8078564   -0.3461880
  -0.2250130   -0.2253990    0.0243340    0.9572925    0.0540777    0.2840189
