NORM_ASCII
770 1541
  -0.1048460   -0.1361490   -0.0600990   -0.8192200   -0.4083571   -0.4026452
  -0.1020690   -0.1427660   -0.0564670   -0.5263084   -0.7742283   -0.3515252
  -0.0914410   -0.1296750   -0.0366330    0.9631353   -0.1238897   -0.2387923
  -0.0917780   -0.1246380   -0.0387420    0.9510523   -0.1125254   -0.2878152
  -0.0913480   -0.1202690   -0.0405140    0.9386939   -0.1221010   -0.3224053
  -0.0916110   -0.1141110   -0.0433800    0.9028600   -0.0448249   -0.4275916
  -0.0932730   -0.1067060   -0.0456490    0.8721168   -0.0068489   -0.4892498
  -0.0950210   -0.0909910   -0.0502900    0.8818629   -0.0925300   -0.4623375
  -0.0936370   -0.0675490   -0.0554360    0.8429313   -0.2105631   -0.4951061
  -0.0880590   -0.0431010   -0.0606740    0.7607122   -0.2170313   -0.6117306
  -0.0860010   -0.0310770   -0.0609240    0.6796197   -0.3257833   -0.6572536
  -0.0801060   -0.0232300   -0.0612430    0.5456811   -0.5373821   -0.6430028
  -0.0738140   -0.0164220   -0.0639520    0.3663384   -0.5167914   -0.7737718
  -0.0671690   -0.0084760   -0.0646200    0.4511822   -0.2478340   -0.8573289
  -0.0615770   -0.0018300   -0.0615870    0.7891419    0.5716486   -0.2246617
  -0.0626630   -0.0023710   -0.0602600   -0.0125389    0.5138806    0.8577701
  -0.0746360   -0.0104580   -0.0642730   -0.3697522    0.2421317    0.8970259
  -0.0827940   -0.0163990   -0.0646230   -0.4273406    0.5037398    0.7507505
  -0.0850620   -0.0186390   -0.0645770   -0.5620738    0.5854541    0.5842230
  -0.0875020   -0.0209880   -0.0643880   -0.4814302    0.7421618    0.4662841
  -0.0916980   -0.0239940   -0.0632640   -0.4722894    0.8419209    0.2609827
  -0.0958010   -0.0266730   -0.0622280   -0.5420226    0.8254705    0.1575120
  -0.0970520   -0.0277780   -0.0610800   -0.6519669    0.7350139    0.1862624
  -0.0979860   -0.0282260   -0.0615930   -0.8581589   -0.2777544    0.4317590
  -0.0964940   -0.0300430   -0.0629410   -0.5057955   -0.6901490    0.5175570
  -0.0959340   -0.0327720   -0.0651350   -0.4423224   -0.5154179    0.7339586
  -0.0952930   -0.0371740   -0.0663610   -0.5642426   -0.1460384    0.8125904
  -0.0955750   -0.0457040   -0.0653810   -0.7441081    0.1725434    0.6453929
  -0.0978310   -0.0669830   -0.0567210   -0.8460104    0.2109901    0.4896422
  -0.0980430   -0.0868450   -0.0526660   -0.8609510    0.0797291    0.5024009
  -0.0965610   -0.1044670   -0.0484530   -0.8911190    0.0979780    0.4430657
  -0.0966510   -0.1098500   -0.0466360   -0.9251960    0.2827493    0.2531109
  -0.0983090   -0.1137440   -0.0433990   -0.9431065    0.2733084    0.1893480
  -0.0977190   -0.1231540   -0.0387740   -0.9171229    0.0189518    0.3981537
  -0.0951180   -0.1285270   -0.0356740   -0.8185319   -0.1216601    0.5614306
  -0.0932690   -0.1317800   -0.0339350   -0.4556991   -0.3743988    0.8075667
  -0.0906690   -0.1326920   -0.0342500    0.7039189   -0.4867539    0.5172705
  -0.0885910   -0.1204160   -0.0318000    0.9649836   -0.2619648   -0.0134566
  -0.0886010   -0.1162770   -0.0342020    0.9381535   -0.2482323   -0.2413479
  -0.0882610   -0.1130260   -0.0352150    0.9068435   -0.1815885   -0.3803427
  -0.0885190   -0.1081030   -0.0377310    0.8697325   -0.1013122   -0.4830126
  -0.0900180   -0.0992410   -0.0408400    0.8423161   -0.0368907   -0.5377199
  -0.0909980   -0.0870120   -0.0434270    0.8589062   -0.1192236   -0.4980622
  -0.0892080   -0.0651410   -0.0492820    0.8092976   -0.2698358   -0.5217528
  -0.0831300   -0.0417110   -0.0542850    0.7557037   -0.2746490   -0.5945417
  -0.0800770   -0.0313790   -0.0550960    0.6686984   -0.3790519   -0.6396578
  -0.0759570   -0.0241080   -0.0565130    0.4291897   -0.6316621   -0.6455999
  -0.0687808   -0.0197719   -0.0600091    0.3134822   -0.6218760   -0.7176344
  -0.0616890   -0.0120510   -0.0604040    0.5043677   -0.3044437   -0.8080391
  -0.0577960   -0.0074300   -0.0581940    0.8841908    0.4296313   -0.1833672
  -0.0583290   -0.0072770   -0.0578950    0.1075607    0.4409207    0.8910778
  -0.0705780   -0.0147760   -0.0619030   -0.3329284    0.4218968    0.8433041
  -0.0840190   -0.0215130   -0.0597230   -0.3629175    0.6627219    0.6550501
  -0.0868000   -0.0233020   -0.0599100   -0.3208523    0.8225411    0.4695529
  -0.0906430   -0.0247400   -0.0581000   -0.2349872    0.9517396    0.1974151
  -0.0938060   -0.0260520   -0.0558790   -0.3391761    0.9405622    0.0173866
  -0.0947270   -0.0264840   -0.0547020   -0.6497493    0.7534418    0.1007539
  -0.0954010   -0.0290740   -0.0544060   -0.9339304    0.0709422    0.3503443
  -0.0941590   -0.0295400   -0.0558830   -0.4956782   -0.8484324    0.1856493
  -0.0916110   -0.0310630   -0.0612500   -0.2788299   -0.8066581    0.5211109
  -0.0907170   -0.0334380   -0.0623980   -0.6349521   -0.2781202    0.7207530
  -0.0901400   -0.0407350   -0.0608280   -0.7632024    0.1894039    0.6177769
  -0.0931550   -0.0631190   -0.0504660   -0.8150825    0.2491004    0.5230579
  -0.0935100   -0.0811710   -0.0452600   -0.8393835    0.1257712    0.5287881
  -0.0932110   -0.0994710   -0.0420140   -0.9015338    0.1581911    0.4027559
  -0.0940670   -0.1040660   -0.0408700   -0.9309898    0.3449015    0.1195863
  -0.0962370   -0.1085300   -0.0381810   -0.9476709    0.2863389    0.1411736
  -0.0960510   -0.1141230   -0.0345650   -0.9267986    0.0710571    0.3687752
  -0.0929470   -0.1206210   -0.0308970   -0.7648625   -0.1210608    0.6327161
  -0.0919460   -0.1225320   -0.0307790   -0.2589124   -0.2797984    0.9244876
  -0.0895260   -0.1234490   -0.0312780    0.7146812   -0.3509053    0.6050589
  -0.0835250   -0.1038530   -0.0263150    0.7577546   -0.4882489    0.4329215
  -0.0825360   -0.1028660   -0.0282410    0.9162768   -0.3965147   -0.0566819
  -0.0827130   -0.1014120   -0.0294550    0.8831088   -0.3123729   -0.3500601
  -0.0831450   -0.0989550   -0.0314610    0.7985970   -0.1666614   -0.5783311
  -0.0858230   -0.0904280   -0.0348610    0.7559898   -0.0634168   -0.6515042
  -0.0863970   -0.0817960   -0.0371110    0.7829619   -0.1960479   -0.5903693
  -0.0837750   -0.0622920   -0.0433600    0.7505073   -0.3134480   -0.5817982
  -0.0779500   -0.0416670   -0.0477810    0.7397303   -0.3136556   -0.5953312
  -0.0749950   -0.0326920   -0.0488300    0.6335867   -0.4414145   -0.6353905
  -0.0718140   -0.0267660   -0.0514310    0.3857223   -0.6929312   -0.6091508
  -0.0652977   -0.0223182   -0.0550590    0.3408414   -0.6968317   -0.6310727
  -0.0589105   -0.0145953   -0.0578478    0.4181150   -0.3787202   -0.8256820
  -0.0562070   -0.0109080   -0.0569010    0.8868833    0.3532640   -0.2977290
  -0.0566190   -0.0110150   -0.0561900    0.1682232    0.6028961    0.7798829
  -0.0679508   -0.0178204   -0.0585102   -0.3005569    0.5919621    0.7478278
  -0.0791320   -0.0238570   -0.0556570   -0.1686808    0.8038854    0.5703639
  -0.0823830   -0.0243840   -0.0533730    0.0689633    0.9822381    0.1745060
  -0.0853760   -0.0239010   -0.0513330    0.0748530    0.9912973   -0.1082895
  -0.0883750   -0.0234230   -0.0492860   -0.1167309    0.9508081   -0.2869457
  -0.0911310   -0.0239670   -0.0481220   -0.5677248    0.8066430   -0.1643641
  -0.0931500   -0.0255190   -0.0473050   -0.9152048    0.3761816    0.1445252
  -0.0936580   -0.0292230   -0.0468180   -0.7514490   -0.5956073    0.2838597
  -0.0919790   -0.0291200   -0.0469830    0.0016731   -0.9875481    0.1573087
  -0.0873380   -0.0282970   -0.0529180   -0.1047481   -0.9345164    0.3401573
  -0.0846910   -0.0310270   -0.0553140   -0.5841422   -0.4688913    0.6625095
  -0.0841180   -0.0367660   -0.0551170   -0.7388243    0.1372148    0.6597808
  -0.0864520   -0.0600290   -0.0429840   -0.7494984    0.2946517    0.5928174
  -0.0868800   -0.0737000   -0.0384240   -0.7828217    0.1982489    0.5898199
  -0.0872310   -0.0888430   -0.0335880   -0.8564466    0.2633115    0.4440342
  -0.0878130   -0.0914060   -0.0323580   -0.8857515    0.4317238    0.1704664
  -0.0892160   -0.0944050   -0.0290110   -0.8961657    0.4335392    0.0945023
  -0.0911370   -0.0985360   -0.0262160   -0.9238376    0.2690991    0.2722310
  -0.0906260   -0.1006540   -0.0242840   -0.7828665    0.0124257    0.6220656
  -0.0893660   -0.1023400   -0.0237200   -0.2524965   -0.3153987    0.9147509
  -0.0853670   -0.1038330   -0.0249840    0.5108377   -0.4744943    0.7168682
  -0.0786200   -0.0898420   -0.0182820    0.6332107   -0.6342495    0.4435896
  -0.0761450   -0.0904520   -0.0222360    0.7670055   -0.5957405    0.2383189
  -0.0747340   -0.0895820   -0.0242100    0.8298113   -0.5320295   -0.1683979
  -0.0754210   -0.0880240   -0.0263130    0.6635536   -0.2533005   -0.7039428
  -0.0777520   -0.0785940   -0.0286810    0.5629768   -0.1439293   -0.8138436
  -0.0783360   -0.0740010   -0.0305490    0.6410869   -0.2442161   -0.7275755
  -0.0758150   -0.0578630   -0.0360160    0.6988312   -0.3196706   -0.6398794
  -0.0725240   -0.0427340   -0.0401290    0.6907802   -0.3506379   -0.6323573
  -0.0702540   -0.0345610   -0.0429320    0.5919282   -0.4866739   -0.6424714
  -0.0675780   -0.0295310   -0.0450680    0.3851584   -0.7011653   -0.6000168
  -0.0619888   -0.0251505   -0.0494848    0.2170846   -0.7471019   -0.6282619
  -0.0544550   -0.0179780   -0.0547160    0.2972575   -0.4878129   -0.8207780
  -0.0522630   -0.0161890   -0.0543410    0.8276388    0.3213779   -0.4601415
  -0.0528410   -0.0159450   -0.0531320    0.1193126    0.7628217    0.6355057
  -0.0626591   -0.0205044   -0.0535588   -0.2579083    0.6664146    0.6995533
  -0.0745750   -0.0266360   -0.0506170   -0.0224508    0.9048185    0.4252052
  -0.0777280   -0.0263740   -0.0480790    0.2838205    0.9573118   -0.0547732
  -0.0813050   -0.0237500   -0.0455200    0.3742274    0.8417574   -0.3890994
  -0.0857100   -0.0196630   -0.0432320    0.0520473    0.8516228   -0.5215646
  -0.0877920   -0.0199800   -0.0420160   -0.5455275    0.8330990   -0.0913553
  -0.0896270   -0.0224240   -0.0399800   -0.8308335    0.4520827    0.3245566
  -0.0896370   -0.0273650   -0.0385860   -0.6230705   -0.5073284    0.5953160
  -0.0892230   -0.0278200   -0.0392960    0.0509099   -0.9367814    0.3461918
  -0.0823980   -0.0265600   -0.0458580   -0.0048390   -0.9444754    0.3285465
  -0.0790030   -0.0286270   -0.0486050   -0.5462762   -0.5568594    0.6256915
  -0.0773450   -0.0341480   -0.0487140   -0.7456892    0.0731604    0.6622652
  -0.0808570   -0.0580890   -0.0375410   -0.6970983    0.3151380    0.6440047
  -0.0813680   -0.0690650   -0.0336040   -0.6991918    0.2638241    0.6644755
  -0.0807810   -0.0802650   -0.0286290   -0.7490220    0.3725584    0.5478743
  -0.0812670   -0.0821580   -0.0268090   -0.7876707    0.5691680    0.2358444
  -0.0827410   -0.0848060   -0.0220460   -0.8014998    0.5877315    0.1103166
  -0.0833990   -0.0871340   -0.0190480   -0.8183678    0.4739366    0.3250512
  -0.0833010   -0.0886930   -0.0167560   -0.6713997    0.1711569    0.7210601
  -0.0821280   -0.0906030   -0.0164470   -0.0071681   -0.3802285    0.9248648
  -0.0810610   -0.0915300   -0.0184320    0.4405620   -0.6049160    0.6633112
  -0.0712800   -0.0819810   -0.0161810    0.6870818   -0.7122896    0.1433949
  -0.0687980   -0.0809090   -0.0201510    0.7241683   -0.6635280    0.1879119
  -0.0673960   -0.0798120   -0.0228020    0.7459186   -0.6208624   -0.2411125
  -0.0673170   -0.0772390   -0.0245920    0.4850691   -0.2806736   -0.8282091
  -0.0687270   -0.0715150   -0.0257130    0.3761820   -0.1002985   -0.9211012
  -0.0698050   -0.0669050   -0.0264610    0.4972838   -0.1844364   -0.8477570
  -0.0686170   -0.0552510   -0.0300010    0.5994386   -0.3106504   -0.7376786
  -0.0671100   -0.0431510   -0.0345170    0.5904656   -0.3845371   -0.7095643
  -0.0655960   -0.0366620   -0.0372920    0.5504880   -0.4858794   -0.6788845
  -0.0638440   -0.0320850   -0.0399490    0.3203600   -0.7234664   -0.6115275
  -0.0579310   -0.0271020   -0.0460390    0.1876762   -0.7861138   -0.5888996
  -0.0503260   -0.0207770   -0.0509740    0.3724833   -0.5952925   -0.7119572
  -0.0487220   -0.0188680   -0.0507460    0.8294077    0.4194399   -0.3689893
  -0.0494730   -0.0191880   -0.0497260   -0.0669867    0.7759721    0.6272003
  -0.0575300   -0.0234280   -0.0491600   -0.2409977    0.7573783    0.6068757
  -0.0684060   -0.0280700   -0.0453400    0.0092274    0.9725862    0.2323595
  -0.0723940   -0.0267790   -0.0417140    0.3673330    0.8972388   -0.2450080
  -0.0747020   -0.0234840   -0.0389480    0.5096326    0.6803704   -0.5266600
  -0.0801860   -0.0160240   -0.0370640    0.1076143    0.8736605   -0.4744855
  -0.0822700   -0.0168990   -0.0358290   -0.4841962    0.8738906    0.0432338
  -0.0840980   -0.0190040   -0.0331320   -0.7225878    0.5800195    0.3760908
  -0.0834300   -0.0220300   -0.0316860   -0.5246249   -0.2447826    0.8153834
  -0.0821820   -0.0232820   -0.0324680   -0.0082155   -0.8079994    0.5891260
  -0.0756950   -0.0238020   -0.0373580   -0.1839875   -0.8739049    0.4499320
  -0.0717890   -0.0275530   -0.0395410   -0.6607082   -0.4889952    0.5695159
  -0.0700540   -0.0331880   -0.0400550   -0.7555990    0.0504976    0.6530851
  -0.0731680   -0.0544640   -0.0323290   -0.6132868    0.3143746    0.7246019
  -0.0737540   -0.0639890   -0.0286660   -0.5623755    0.2839185    0.7766106
  -0.0717440   -0.0717180   -0.0250110   -0.6239276    0.4401370    0.6457506
  -0.0718940   -0.0737210   -0.0224790   -0.6992941    0.6806549    0.2183958
  -0.0736260   -0.0746930   -0.0188570   -0.7074859    0.6991345    0.1033178
  -0.0742720   -0.0772360   -0.0151860   -0.7039538    0.5602857    0.4364963
  -0.0743470   -0.0796960   -0.0137350   -0.4743020    0.2049674    0.8561694
  -0.0730880   -0.0813820   -0.0131710    0.0571540   -0.3358077    0.9401950
  -0.0715960   -0.0821820   -0.0141910    0.4645225   -0.6692504    0.5799334
  -0.0626100   -0.0737920   -0.0152940    0.6605032   -0.7485215   -0.0587460
  -0.0612900   -0.0729270   -0.0182030    0.6345946   -0.7622006    0.1278279
  -0.0591340   -0.0721840   -0.0215260    0.6434071   -0.6991804   -0.3117277
  -0.0597330   -0.0699470   -0.0230430    0.4153917   -0.2316705   -0.8796468
  -0.0605530   -0.0645500   -0.0233480    0.3039533   -0.0337080   -0.9520904
  -0.0619620   -0.0600490   -0.0241290    0.4131826   -0.1769720   -0.8932867
  -0.0617890   -0.0518710   -0.0267220    0.5093901   -0.3075666   -0.8036943
  -0.0606060   -0.0431260   -0.0298910    0.5410654   -0.3617996   -0.7591767
  -0.0599370   -0.0377560   -0.0319010    0.4860219   -0.4978521   -0.7182799
  -0.0585200   -0.0345210   -0.0342300    0.2606254   -0.7527764   -0.6044850
  -0.0535300   -0.0296570   -0.0401750    0.1810303   -0.8112306   -0.5559972
  -0.0462670   -0.0245530   -0.0451260    0.4086061   -0.6541861   -0.6364602
  -0.0444930   -0.0218700   -0.0453930    0.9168590    0.3906533   -0.0822162
  -0.0449890   -0.0223070   -0.0446030    0.0897147    0.8068115    0.5839576
  -0.0516970   -0.0259680   -0.0425520   -0.2071656    0.8510020    0.4825744
  -0.0600450   -0.0299460   -0.0379730    0.0440361    0.9714518    0.2331143
  -0.0639550   -0.0287670   -0.0347660    0.4315828    0.8794327   -0.2008343
  -0.0669200   -0.0246830   -0.0317400    0.5719253    0.5895175   -0.5704126
  -0.0715410   -0.0128270   -0.0286210    0.2324047    0.8048759   -0.5460428
  -0.0732020   -0.0123460   -0.0267760   -0.5625383    0.8101239    0.1650756
  -0.0743660   -0.0145750   -0.0246830   -0.6582793    0.0439475    0.7514898
  -0.0737090   -0.0173980   -0.0255990   -0.3380001   -0.6674958    0.6634797
  -0.0695640   -0.0210480   -0.0286700   -0.5150968   -0.6781836    0.5241586
  -0.0647690   -0.0300830   -0.0316310   -0.7322120   -0.3703363    0.5715913
  -0.0636980   -0.0359470   -0.0322210   -0.7357957    0.0681783    0.6737629
  -0.0641380   -0.0520860   -0.0269640   -0.5226559    0.2611227    0.8115699
  -0.0645690   -0.0593730   -0.0248240   -0.4627509    0.2779244    0.8417955
  -0.0637270   -0.0648620   -0.0224890   -0.6016558    0.4541233    0.6571014
  -0.0635460   -0.0667540   -0.0199230   -0.6826254    0.6970088    0.2195477
  -0.0654330   -0.0679420   -0.0158110   -0.6497434    0.7484296    0.1329909
  -0.0658300   -0.0695900   -0.0120370   -0.6242412    0.5801214    0.5232419
  -0.0657420   -0.0711570   -0.0114250   -0.2750955    0.1405287    0.9510910
  -0.0641640   -0.0735360   -0.0118290    0.0903872   -0.3047221    0.9481427
  -0.0623320   -0.0743330   -0.0124770    0.4750983   -0.7235012    0.5008270
  -0.0599910   -0.0716570   -0.0146260    0.6338317   -0.7637740   -0.1220927
  -0.0585940   -0.0710280   -0.0176040    0.5735111   -0.8058580    0.1472339
  -0.0561890   -0.0700510   -0.0204860    0.6546867   -0.6891034   -0.3106796
  -0.0556860   -0.0671450   -0.0219810    0.4039565   -0.2330719   -0.8845884
  -0.0569270   -0.0621890   -0.0222480    0.2500640   -0.0375551   -0.9675007
  -0.0579220   -0.0566850   -0.0230760    0.3655908   -0.1690396   -0.9152972
  -0.0574940   -0.0507360   -0.0245220    0.4524735   -0.2898470   -0.8433602
  -0.0565640   -0.0431190   -0.0271190    0.4848236   -0.3525364   -0.8004150
  -0.0558930   -0.0389760   -0.0287740    0.3719005   -0.5493586   -0.7482614
  -0.0542280   -0.0350780   -0.0320170    0.2398918   -0.7606389   -0.6032250
  -0.0498980   -0.0314250   -0.0366700    0.1851516   -0.8275166   -0.5300332
  -0.0449750   -0.0275500   -0.0404980    0.4816851   -0.6878766   -0.5429597
  -0.0441310   -0.0252040   -0.0416170    0.9858280    0.0059017   -0.1676556
  -0.0441170   -0.0257490   -0.0399250    0.4736485    0.8027709    0.3622375
  -0.0500590   -0.0277350   -0.0378980   -0.1337658    0.8718779    0.4711004
  -0.0554070   -0.0313810   -0.0343680    0.0329022    0.9492188    0.3128914
  -0.0589000   -0.0308900   -0.0311880    0.3913898    0.8853137   -0.2510650
  -0.0617890   -0.0263550   -0.0285840    0.5395483    0.5484501   -0.6388193
  -0.0646740   -0.0101910   -0.0212870    0.4056630    0.7701368   -0.4922671
  -0.0665080   -0.0096130   -0.0199680   -0.0537270    0.9858380   -0.1588610
  -0.0674240   -0.0104960   -0.0191270   -0.6191666    0.6481526    0.4433180
  -0.0676780   -0.0127430   -0.0185330   -0.6468351   -0.2354516    0.7253736
  -0.0656270   -0.0181730   -0.0210520   -0.5568599   -0.5757407    0.5986900
  -0.0635720   -0.0224740   -0.0235810   -0.6932988   -0.4975382    0.5213371
  -0.0605400   -0.0316380   -0.0273040   -0.8068231   -0.2578274    0.5315652
  -0.0604070   -0.0387230   -0.0277290   -0.7161113    0.0412934    0.6967636
  -0.0609380   -0.0507360   -0.0258040   -0.4857235    0.1982840    0.8513261
  -0.0607800   -0.0563410   -0.0238760   -0.4981708    0.2926289    0.8162072
  -0.0606940   -0.0618310   -0.0215360   -0.5906531    0.4444675    0.6734817
  -0.0610180   -0.0642900   -0.0195230   -0.6617335    0.6923764    0.2876173
  -0.0625730   -0.0660320   -0.0150270   -0.6645282    0.7434700    0.0751978
  -0.0639010   -0.0673530   -0.0124560   -0.6163249    0.6247194    0.4794468
  -0.0629660   -0.0689130   -0.0109150   -0.3100488    0.1218353    0.9428817
  -0.0611290   -0.0709470   -0.0112100    0.0119766   -0.2912834    0.9565618
  -0.0598920   -0.0727660   -0.0119910    0.4275458   -0.7739151    0.4671830
  -0.0573800   -0.0695270   -0.0139520    0.6277203   -0.7639332   -0.1495769
  -0.0561400   -0.0690010   -0.0167870    0.6227588   -0.7689426    0.1445639
  -0.0538300   -0.0675790   -0.0202670    0.6597924   -0.6626712   -0.3543175
  -0.0534090   -0.0644500   -0.0216890    0.3211945   -0.2057085   -0.9244015
  -0.0541440   -0.0599450   -0.0217310    0.2209037   -0.0207747   -0.9750743
  -0.0544680   -0.0548920   -0.0221500    0.3157183   -0.1511153   -0.9367423
  -0.0539520   -0.0492820   -0.0233390    0.3600328   -0.2774660   -0.8907239
  -0.0533560   -0.0431130   -0.0252740    0.3438148   -0.3810731   -0.8582393
  -0.0524360   -0.0390930   -0.0271550    0.2915178   -0.5517447   -0.7814059
  -0.0505160   -0.0357420   -0.0292750    0.1812979   -0.7529713   -0.6325862
  -0.0466870   -0.0323130   -0.0338050    0.1513525   -0.8173505   -0.5559052
  -0.0441010   -0.0304340   -0.0358380    0.3563605   -0.7226237   -0.5923024
  -0.0426810   -0.0287570   -0.0367940    0.8144471   -0.0958883   -0.5722598
  -0.0425040   -0.0285290   -0.0356040    0.3163610    0.9426870    0.1060989
  -0.0447580   -0.0287310   -0.0349010   -0.1060360    0.9079930    0.4053457
  -0.0506000   -0.0322660   -0.0305730   -0.0239170    0.9791212    0.2018653
  -0.0529190   -0.0317780   -0.0277930    0.3078498    0.8848964   -0.3495524
  -0.0553820   -0.0272410   -0.0238750    0.5075941    0.5757522   -0.6409818
  -0.0581270   -0.0138950   -0.0180550    0.5145508    0.5145740   -0.6858944
  -0.0590820   -0.0075770   -0.0161930    0.1381546    0.8023699   -0.5806168
  -0.0607250   -0.0098830   -0.0109440   -0.7941220    0.2039542    0.5725145
  -0.0602660   -0.0149730   -0.0137150   -0.6824890   -0.3826041    0.6227543
  -0.0593910   -0.0208490   -0.0161760   -0.7551191   -0.3737523    0.5386134
  -0.0588530   -0.0266170   -0.0193500   -0.8285885   -0.3434047    0.4421700
  -0.0576630   -0.0341940   -0.0231060   -0.8166501   -0.2643478    0.5130331
  -0.0570250   -0.0402830   -0.0243320   -0.6520605   -0.0858930    0.7532858
  -0.0568000   -0.0490450   -0.0237980   -0.5031105    0.1468767    0.8516496
  -0.0577350   -0.0545420   -0.0225770   -0.5127082    0.2938205    0.8067217
  -0.0572380   -0.0595830   -0.0202790   -0.6193502    0.4642436    0.6331533
  -0.0578900   -0.0614770   -0.0186420   -0.6900434    0.6738167    0.2642178
  -0.0598790   -0.0635670   -0.0144450   -0.6554900    0.7485347    0.1001430
  -0.0597650   -0.0643140   -0.0111410   -0.5854692    0.6074397    0.5368825
  -0.0603540   -0.0667830   -0.0102410   -0.3225279    0.0708493    0.9439047
  -0.0586890   -0.0693790   -0.0107240   -0.1303974   -0.3142667    0.9403366
  -0.0575270   -0.0710740   -0.0110890    0.3862415   -0.8144734    0.4329558
  -0.0458400   -0.0626820   -0.0109040    0.4542318   -0.8121071   -0.3662723
  -0.0448540   -0.0615840   -0.0131760    0.5190456   -0.8246059   -0.2249819
  -0.0431130   -0.0594920   -0.0168110    0.5273920   -0.7604616   -0.3788876
  -0.0413590   -0.0569280   -0.0184260    0.4260667   -0.5348716   -0.7296435
  -0.0409390   -0.0538990   -0.0195110    0.2283031   -0.3802677   -0.8962556
  -0.0402680   -0.0505370   -0.0204920    0.1186819   -0.3504840   -0.9290186
  -0.0385020   -0.0457250   -0.0221310   -0.0371330   -0.3730863   -0.9270533
  -0.0375830   -0.0423700   -0.0236600   -0.0404986   -0.4532515   -0.8904622
  -0.0356600   -0.0403670   -0.0250900   -0.0822483   -0.5978854   -0.7973508
  -0.0343320   -0.0379270   -0.0276830   -0.0921614   -0.6972410   -0.7108877
  -0.0316730   -0.0351630   -0.0314750   -0.1416209   -0.7615608   -0.6324307
  -0.0250280   -0.0304390   -0.0402810    0.0534098   -0.7268191   -0.6847491
  -0.0303830   -0.0246040   -0.0323830   -0.5859515    0.7926422    0.1684611
  -0.0327150   -0.0268240   -0.0298960   -0.5072893    0.8463867    0.1621332
  -0.0358790   -0.0291370   -0.0263280   -0.5003294    0.8580100    0.1161434
  -0.0392140   -0.0318970   -0.0232710   -0.3638489    0.9298930   -0.0539713
  -0.0424530   -0.0315240   -0.0203220    0.0557815    0.9448346   -0.3227631
  -0.0445120   -0.0290170   -0.0174300    0.4986544    0.7669985   -0.4038032
  -0.0453850   -0.0251490   -0.0139390    0.7458251    0.5279749   -0.4061864
  -0.0444210   -0.0234360   -0.0104080    0.9917877    0.0908006   -0.0900686
  -0.0462470   -0.0243050   -0.0080550    0.4221959   -0.4747341    0.7722553
  -0.0476910   -0.0264480   -0.0091100    0.0160738   -0.4238179    0.9056048
  -0.0484840   -0.0296160   -0.0114350   -0.1787324   -0.5925110    0.7854842
  -0.0470230   -0.0345990   -0.0151050   -0.2992906   -0.5188191    0.8007820
  -0.0470490   -0.0370840   -0.0160980   -0.3807159   -0.3176504    0.8684202
  -0.0460560   -0.0410330   -0.0166300   -0.6143115   -0.0243656    0.7886873
  -0.0468310   -0.0444040   -0.0165850   -0.7345214    0.1949063    0.6499922
  -0.0475070   -0.0475460   -0.0162840   -0.7433690    0.2723514    0.6109233
  -0.0474250   -0.0498980   -0.0149910   -0.7524444    0.3494637    0.5583033
  -0.0475000   -0.0529210   -0.0135380   -0.7267504    0.5051976    0.4654129
  -0.0494300   -0.0562620   -0.0114220   -0.6388430    0.6328325    0.4374958
  -0.0506710   -0.0590410   -0.0085720   -0.6041520    0.5244694    0.5999435
  -0.0504110   -0.0626290   -0.0067370   -0.3890108    0.0187467    0.9210424
  -0.0495890   -0.0648880   -0.0074730   -0.1713002   -0.3725021    0.9120847
  -0.0480930   -0.0663580   -0.0081580    0.2668393   -0.9423656    0.2018512
  -0.0553590   -0.0678470   -0.0134340    0.6591880   -0.7273725   -0.1907891
  -0.0536990   -0.0669790   -0.0159700    0.5999889   -0.7965705    0.0740858
  -0.0506240   -0.0647780   -0.0201400    0.6068873   -0.6652675   -0.4348643
  -0.0508830   -0.0625390   -0.0212840    0.3518253   -0.1770683   -0.9191658
  -0.0511950   -0.0577000   -0.0210300    0.2068993   -0.0097006   -0.9783142
  -0.0505960   -0.0532060   -0.0212700    0.2397147   -0.1687061   -0.9560727
  -0.0495830   -0.0486060   -0.0222220    0.2149609   -0.2999166   -0.9294309
  -0.0486510   -0.0428980   -0.0241250    0.1989421   -0.3850265   -0.9012084
  -0.0475580   -0.0395380   -0.0254770    0.1232139   -0.5604149   -0.8189954
  -0.0454820   -0.0365380   -0.0280710    0.0346532   -0.7213029   -0.6917523
  -0.0421490   -0.0329840   -0.0318140    0.0705928   -0.7477127   -0.6602593
  -0.0410690   -0.0312060   -0.0334930    0.0251514   -0.6654024   -0.7460610
  -0.0393940   -0.0296480   -0.0346810   -0.0674537    0.6268031   -0.7762524
  -0.0402990   -0.0290680   -0.0331770   -0.1217386    0.9879964    0.0950933
  -0.0409570   -0.0299450   -0.0312190   -0.2051818    0.9092159    0.3622524
  -0.0457870   -0.0324810   -0.0271350   -0.0612017    0.9938808    0.0919524
  -0.0486080   -0.0316540   -0.0242350    0.2558891    0.8898091   -0.3778367
  -0.0503290   -0.0280150   -0.0209880    0.4155448    0.5802417   -0.7004585
  -0.0524990   -0.0167080   -0.0160140    0.4914849    0.3867498   -0.7802994
  -0.0523640   -0.0100520   -0.0131250    0.4904271    0.3110812   -0.8140699
  -0.0538370   -0.0166110   -0.0066370   -0.7181976   -0.3401153    0.6070534
  -0.0547980   -0.0207970   -0.0094730   -0.7228038   -0.2988813    0.6230768
  -0.0559340   -0.0248770   -0.0128320   -0.7610715   -0.3182518    0.5652309
  -0.0562490   -0.0306540   -0.0169290   -0.7514136   -0.4089732    0.5178016
  -0.0547990   -0.0367660   -0.0205960   -0.7006766   -0.3829058    0.6020261
  -0.0544990   -0.0416210   -0.0225400   -0.6324897   -0.1659710    0.7565781
  -0.0541880   -0.0482590   -0.0224480   -0.5145835    0.0992883    0.8516723
  -0.0539390   -0.0522920   -0.0209480   -0.5528119    0.3140120    0.7718779
  -0.0543610   -0.0566600   -0.0191690   -0.6663325    0.4511568    0.5936822
  -0.0544350   -0.0586660   -0.0173880   -0.7127875    0.6395635    0.2879104
  -0.0568400   -0.0610890   -0.0134790   -0.6538371    0.7312259    0.1944369
  -0.0574030   -0.0631980   -0.0102340   -0.5334466    0.5573147    0.6362665
  -0.0568960   -0.0656580   -0.0089790   -0.3024523    0.0202049    0.9529504
  -0.0564110   -0.0680320   -0.0097420   -0.0913343   -0.3680551    0.9253072
  -0.0544130   -0.0692830   -0.0105360    0.4215394   -0.8544554    0.3036619
  -0.0518130   -0.0653660   -0.0119120    0.5223380   -0.8096975   -0.2674937
  -0.0503270   -0.0645000   -0.0146390    0.5246387   -0.8504081   -0.0395002
  -0.0476760   -0.0627520   -0.0187670    0.6101649   -0.6710170   -0.4212304
  -0.0466660   -0.0590620   -0.0203800    0.4076076   -0.2588929   -0.8756886
  -0.0468210   -0.0557960   -0.0202600    0.2122590   -0.0992343   -0.9721618
  -0.0463870   -0.0518660   -0.0206800    0.1464864   -0.2349044   -0.9609171
  -0.0453780   -0.0464930   -0.0223170    0.1096301   -0.3223750   -0.9402423
  -0.0443730   -0.0423480   -0.0236060    0.0644193   -0.4238560   -0.9034358
  -0.0433650   -0.0397730   -0.0252110   -0.0098880   -0.6029938   -0.7976846
  -0.0408670   -0.0368900   -0.0278540   -0.0561398   -0.6961486   -0.7156993
  -0.0377020   -0.0341220   -0.0310920   -0.1243602   -0.7241482   -0.6783391
  -0.0318890   -0.0289330   -0.0388060   -0.3972476   -0.2369559   -0.8865925
  -0.0337660   -0.0267480   -0.0347250   -0.6214618    0.7336285   -0.2749082
  -0.0356720   -0.0279570   -0.0322970   -0.3917446    0.8928348    0.2222211
  -0.0385070   -0.0298330   -0.0297020   -0.3396850    0.9072472    0.2480254
  -0.0425910   -0.0323590   -0.0256280   -0.1468875    0.9858236    0.0810921
  -0.0454140   -0.0319860   -0.0230580    0.1959020    0.9037568   -0.3805865
  -0.0474610   -0.0280120   -0.0195170    0.4849883    0.6131786   -0.6235370
  -0.0486450   -0.0196370   -0.0147530    0.6263923    0.3922689   -0.6736154
  -0.0474340   -0.0160150   -0.0124770    0.6325666    0.2615453   -0.7290086
  -0.0504930   -0.0213380   -0.0055700   -0.5089748   -0.4939454    0.7049557
  -0.0516990   -0.0238300   -0.0078580   -0.3812240   -0.4658328    0.7985412
  -0.0521530   -0.0274510   -0.0101400   -0.3999544   -0.5221745    0.7532399
  -0.0527280   -0.0336840   -0.0156990   -0.4114788   -0.5802585    0.7028409
  -0.0524310   -0.0367490   -0.0179990   -0.4844465   -0.4336267    0.7597891
  -0.0519680   -0.0414960   -0.0200930   -0.5050491   -0.2461244    0.8272534
  -0.0509910   -0.0470210   -0.0209480   -0.5996801    0.1077867    0.7929476
  -0.0510740   -0.0506010   -0.0194840   -0.6916720    0.3169523    0.6489461
  -0.0511490   -0.0530620   -0.0180340   -0.7368178    0.4147151    0.5339578
  -0.0518960   -0.0558540   -0.0163170   -0.7252604    0.5986351    0.3400491
  -0.0533760   -0.0582830   -0.0122340   -0.5881310    0.7053745    0.3956625
  -0.0544570   -0.0608460   -0.0098670   -0.4906311    0.5477351    0.6776927
  -0.0542030   -0.0637510   -0.0083780   -0.3380736    0.0704140    0.9384818
  -0.0533020   -0.0669060   -0.0088450   -0.1852089   -0.3761123    0.9078751
  -0.0525540   -0.0679220   -0.0091860    0.3597562   -0.8777440    0.3164504
  -0.0411260   -0.0601110   -0.0101120    0.3920730   -0.8706123   -0.2971749
  -0.0399780   -0.0594570   -0.0125290    0.2488020   -0.9256902   -0.2849477
  -0.0384890   -0.0579170   -0.0155970    0.1937839   -0.8130772   -0.5489565
  -0.0379190   -0.0562550   -0.0174930    0.1412638   -0.6179386   -0.7734316
  -0.0366610   -0.0533480   -0.0189930    0.0589252   -0.4896361   -0.8699335
  -0.0358240   -0.0502210   -0.0207930    0.0338360   -0.4151287   -0.9091333
  -0.0339810   -0.0457420   -0.0221660    0.1158019   -0.4302052   -0.8952728
  -0.0325500   -0.0427310   -0.0238250    0.1414317   -0.5728840   -0.8073420
  -0.0312130   -0.0407200   -0.0250560    0.2041017   -0.6835388   -0.7007975
  -0.0294700   -0.0385050   -0.0273410    0.2360766   -0.8234109   -0.5160061
  -0.0268890   -0.0356260   -0.0307290    0.3067619   -0.8561659   -0.4157850
  -0.0231460   -0.0332010   -0.0348390    0.2899295   -0.8879954   -0.3569385
  -0.0261540   -0.0225570   -0.0287630   -0.4906519    0.8503641    0.1901096
  -0.0295680   -0.0245400   -0.0256390   -0.4755658    0.8752539    0.0881350
  -0.0333200   -0.0277550   -0.0225340   -0.5297887    0.8480894    0.0082603
  -0.0359890   -0.0306470   -0.0200840   -0.3818720    0.9154657    0.1268713
  -0.0389920   -0.0313960   -0.0176900    0.1025713    0.9940790    0.0358606
  -0.0408120   -0.0305830   -0.0153530    0.5241168    0.8515085   -0.0153239
  -0.0423730   -0.0287580   -0.0132590    0.6932979    0.6909974    0.2045987
  -0.0426010   -0.0282850   -0.0106700    0.5081202    0.5949987    0.6227283
  -0.0441020   -0.0290570   -0.0099800   -0.0335930   -0.1789326    0.9832877
  -0.0447220   -0.0322230   -0.0121140   -0.3355823   -0.5188267    0.7862591
  -0.0440890   -0.0352770   -0.0140380   -0.4402641   -0.4080296    0.7997996
  -0.0435970   -0.0376460   -0.0148070   -0.5671729   -0.1319115    0.8129664
  -0.0436870   -0.0397800   -0.0143760   -0.6479580    0.1062892    0.7542235
  -0.0436960   -0.0421370   -0.0140180   -0.6530319    0.2063201    0.7286847
  -0.0439510   -0.0443840   -0.0134240   -0.7249031    0.3515217    0.5924087
  -0.0443700   -0.0461720   -0.0126960   -0.7528570    0.3591838    0.5515373
  -0.0445350   -0.0489690   -0.0111620   -0.7697628    0.4397074    0.4627340
  -0.0449510   -0.0516510   -0.0094120   -0.7725378    0.5368683    0.3390544
  -0.0462710   -0.0545500   -0.0071590   -0.7194629    0.4249777    0.5493333
  -0.0454390   -0.0589140   -0.0048370   -0.4983150    0.0262048    0.8665999
  -0.0441890   -0.0621750   -0.0045890   -0.1510767   -0.3686443    0.9172117
  -0.0423660   -0.0638820   -0.0059050    0.4610528   -0.8614322    0.2129904
  -0.0360830   -0.0594310   -0.0082560    0.2615035   -0.9630064   -0.0650745
  -0.0348460   -0.0587980   -0.0114240    0.2116469   -0.9116604   -0.3522513
  -0.0334470   -0.0575930   -0.0144070    0.0857915   -0.8628386   -0.4981460
  -0.0319480   -0.0559230   -0.0161320    0.1262078   -0.6625558   -0.7383030
  -0.0307030   -0.0528020   -0.0183050    0.1300858   -0.5285987   -0.8388451
  -0.0293580   -0.0496710   -0.0195500    0.1819956   -0.3530432   -0.9177353
  -0.0276710   -0.0447480   -0.0207710    0.2379274   -0.3843512   -0.8920004
  -0.0273390   -0.0426160   -0.0217700    0.3127407   -0.4403775   -0.8415824
  -0.0257380   -0.0398140   -0.0225640    0.4005839   -0.5910793   -0.7001127
  -0.0235670   -0.0379350   -0.0242180    0.4105149   -0.7749420   -0.4805647
  -0.0207330   -0.0350410   -0.0264850    0.5427076   -0.7536726   -0.3707372
  -0.0190560   -0.0330270   -0.0273430    0.6676257   -0.7062545   -0.2355431
  -0.0199880   -0.0222000   -0.0238430   -0.0025848    0.9611832    0.2758988
  -0.0259110   -0.0233830   -0.0208080   -0.2102746    0.9752338    0.0685828
  -0.0310110   -0.0246880   -0.0182020   -0.5249372    0.8469163    0.0846975
  -0.0333430   -0.0285870   -0.0157040   -0.6278962    0.7616813    0.1599624
  -0.0348480   -0.0302560   -0.0139860   -0.4198371    0.9057968    0.0571750
  -0.0361780   -0.0306820   -0.0124360   -0.1382397    0.9888434    0.0554847
  -0.0373410   -0.0308890   -0.0113750    0.1162691    0.9837954    0.1364849
  -0.0385010   -0.0305420   -0.0103200    0.1069788    0.7879432    0.6063837
  -0.0404340   -0.0321060   -0.0102500   -0.3432912   -0.0721023    0.9364574
  -0.0402800   -0.0340270   -0.0110470   -0.5510221   -0.2697335    0.7896952
  -0.0399490   -0.0354960   -0.0113400   -0.6547605   -0.2172630    0.7239375
  -0.0401320   -0.0370730   -0.0118470   -0.7126242   -0.0410278    0.7003452
  -0.0397230   -0.0388770   -0.0118730   -0.7159961    0.0105771    0.6980241
  -0.0396350   -0.0404430   -0.0112610   -0.7794243    0.2755177    0.5626613
  -0.0401440   -0.0420050   -0.0104510   -0.7963360    0.4124034    0.4424617
  -0.0404770   -0.0441370   -0.0094520   -0.8144986    0.3889773    0.4304516
  -0.0410540   -0.0460340   -0.0085660   -0.8391146    0.4641223    0.2836850
  -0.0423100   -0.0484860   -0.0067350   -0.8323969    0.4756945    0.2843064
  -0.0427980   -0.0517190   -0.0042210   -0.7698526    0.2989755    0.5638623
  -0.0420540   -0.0555340   -0.0028390   -0.5033513   -0.0831254    0.8600742
  -0.0398940   -0.0589290   -0.0037680    0.0612349   -0.5039878    0.8615374
  -0.0376590   -0.0605300   -0.0057950    0.3904952   -0.8772103    0.2793128
  -0.0316150   -0.0581920   -0.0062160    0.2863542   -0.9047741    0.3152540
  -0.0283850   -0.0592560   -0.0105050    0.3263028    0.0901869   -0.9409531
  -0.0259830   -0.0583910   -0.0130480    0.1342797   -0.8621397   -0.4885530
  -0.0248150   -0.0561720   -0.0151440    0.1713165   -0.6932936   -0.6999962
  -0.0230680   -0.0528270   -0.0174400    0.2111216   -0.4822537   -0.8502112
  -0.0223900   -0.0494650   -0.0184140    0.2069145   -0.3157527   -0.9260057
  -0.0219630   -0.0447530   -0.0195160    0.2273682   -0.2573270   -0.9391946
  -0.0217830   -0.0422840   -0.0200300    0.3641672   -0.1206702   -0.9234830
  -0.0210210   -0.0395830   -0.0197250    0.4513224   -0.4392919   -0.7767436
  -0.0197650   -0.0373490   -0.0208820    0.5492812   -0.5705128   -0.6105778
  -0.0175830   -0.0338870   -0.0222110    0.7480331   -0.4968026   -0.4400383
  -0.0162270   -0.0307390   -0.0217650    0.9426158   -0.2664425   -0.2012059
  -0.0162780   -0.0242040   -0.0204070    0.6345790    0.7630108    0.1229796
  -0.0230320   -0.0235820   -0.0169750    0.0375727    0.9722670    0.2308358
  -0.0287090   -0.0247760   -0.0145120   -0.3576698    0.8842529    0.3002817
  -0.0324760   -0.0282260   -0.0124240   -0.5556236    0.8062262    0.2031791
  -0.0333870   -0.0293280   -0.0109040   -0.5508991    0.8106534    0.1983713
  -0.0339750   -0.0299930   -0.0103630   -0.4825486    0.8189867    0.3104957
  -0.0350550   -0.0308860   -0.0097080   -0.1691174    0.9642950    0.2037999
  -0.0353010   -0.0310940   -0.0084640   -0.3067281    0.7787702    0.5472064
  -0.0375710   -0.0326690   -0.0087700   -0.6230465    0.4227123    0.6581241
  -0.0376500   -0.0336740   -0.0083430   -0.7803172    0.1682943    0.6023139
  -0.0375740   -0.0350260   -0.0084050   -0.8466492    0.0854523    0.5252457
  -0.0378360   -0.0359240   -0.0085080   -0.8486659   -0.0122513    0.5287874
  -0.0377540   -0.0367090   -0.0085780   -0.8886827    0.0695863    0.4532117
  -0.0375070   -0.0381710   -0.0081100   -0.9113891    0.2546829    0.3232748
  -0.0380080   -0.0397380   -0.0073100   -0.8864441    0.3899707    0.2492783
  -0.0382450   -0.0410700   -0.0060530   -0.9003041    0.3694975    0.2300526
  -0.0387470   -0.0428600   -0.0045670   -0.8728959    0.3688227    0.3194096
  -0.0391660   -0.0446490   -0.0038380   -0.7923676    0.4169439    0.4453217
  -0.0394870   -0.0478800   -0.0011420   -0.7206257    0.1744174    0.6710270
  -0.0384880   -0.0524790    0.0003610   -0.3625730   -0.2954776    0.8838743
  -0.0355900   -0.0564560   -0.0022540   -0.0318281   -0.6934494    0.7198020
  -0.0330980   -0.0577200   -0.0041830    0.1287422   -0.9362132    0.3270018
  -0.0279150   -0.0589770   -0.0048140   -0.0900264    0.9913704   -0.0952891
  -0.0244240   -0.0593600   -0.0083270    0.3788364   -0.8659454   -0.3265294
  -0.0218550   -0.0576100   -0.0117110    0.3559556   -0.8780447   -0.3198953
  -0.0201050   -0.0560550   -0.0136510    0.4685150   -0.7356576   -0.4891846
  -0.0183550   -0.0521570   -0.0159530    0.3641752   -0.5500448   -0.7515498
  -0.0179330   -0.0489080   -0.0177110    0.4636971   -0.3293926   -0.8224874
  -0.0171660   -0.0441940   -0.0184400    0.6146835   -0.0845626   -0.7842279
  -0.0177440   -0.0413830   -0.0182790    0.6591764    0.0853700   -0.7471268
  -0.0179070   -0.0396930   -0.0184760    0.6317318   -0.2073686   -0.7469359
  -0.0167320   -0.0367830   -0.0192310    0.7337618   -0.4296877   -0.5262718
  -0.0145360   -0.0325170   -0.0195570    0.8580600   -0.3007599   -0.4162650
  -0.0139350   -0.0299340   -0.0191040    0.9563090    0.0427023   -0.2892223
  -0.0141670   -0.0280050   -0.0175380    0.8778652    0.3911120    0.2763768
  -0.0199860   -0.0259170   -0.0132650    0.4686441    0.7436964    0.4767477
  -0.0239830   -0.0260990   -0.0103050    0.1630544    0.8874742    0.4310484
  -0.0272270   -0.0274080   -0.0073400   -0.1280165    0.9211679    0.3675072
  -0.0288190   -0.0279520   -0.0065690   -0.3278591    0.8922616    0.3104475
  -0.0304910   -0.0293990   -0.0057200   -0.5827161    0.7864872    0.2046455
  -0.0314100   -0.0309600   -0.0045240   -0.6526298    0.7045327    0.2787618
  -0.0337580   -0.0325230   -0.0040750   -0.5611589    0.7275625    0.3946561
  -0.0340890   -0.0334140   -0.0034330   -0.6550031    0.6036403    0.4545210
  -0.0345040   -0.0340780   -0.0027030   -0.6617461    0.5337523    0.5264984
  -0.0344210   -0.0345280   -0.0021050   -0.7163128    0.4896537    0.4971269
  -0.0351720   -0.0358650   -0.0014120   -0.7564141    0.4400015    0.4839797
  -0.0353250   -0.0374290   -0.0002320   -0.7210346    0.4900209    0.4898863
  -0.0356660   -0.0383160    0.0004200   -0.7222770    0.4784473    0.4994038
  -0.0360010   -0.0403360    0.0010730   -0.7470101    0.2905629    0.5979540
  -0.0355910   -0.0466170    0.0027870   -0.6442184    0.1337206    0.7530613
  -0.0346890   -0.0503350    0.0023240   -0.3004880   -0.3132095    0.9008922
  -0.0319640   -0.0549790   -0.0001300   -0.0523632   -0.5882844    0.8069570
  -0.0292360   -0.0578330   -0.0029340   -0.0595456   -0.8890058    0.4540076
  -0.0252150   -0.0577470   -0.0038800   -0.1419930    0.7571457   -0.6376272
  -0.0224030   -0.0584670   -0.0071210    0.8194304   -0.3284096    0.4697668
  -0.0204180   -0.0571490   -0.0106400    0.8519285   -0.4367134    0.2889623
  -0.0192530   -0.0556030   -0.0123940    0.8864828   -0.4625210    0.0149169
  -0.0175970   -0.0522630   -0.0156260    0.9588121   -0.2834216   -0.0187474
  -0.0170040   -0.0487910   -0.0161880    0.9724797   -0.0472288    0.2281505
  -0.0161390   -0.0432860   -0.0166630    0.9883437    0.1036304    0.1115238
  -0.0165560   -0.0409200   -0.0166460    0.9909884    0.0918907    0.0974586
  -0.0167740   -0.0387280   -0.0165400    0.9093941   -0.2451430    0.3360166
  -0.0156150   -0.0362050   -0.0171850    0.8696001   -0.3173277    0.3782839
  -0.0140890   -0.0323820   -0.0168990    0.8628476   -0.2132923    0.4582579
  -0.0141590   -0.0293490   -0.0168540    0.8709662    0.1478477    0.4685711
  -0.0193950   -0.0268060   -0.0124460    0.5322403    0.6518081    0.5402467
  -0.0230580   -0.0269900   -0.0091070    0.4253725    0.6437623    0.6361041
  -0.0268020   -0.0280660   -0.0056880    0.3721347    0.5469369    0.7499172
  -0.0293120   -0.0291180   -0.0042300    0.2353802    0.5293917    0.8150709
  -0.0301000   -0.0293370   -0.0035840    0.2109456    0.6884295    0.6939501
  -0.0312810   -0.0302580   -0.0026360   -0.2378892    0.1925406    0.9520173
  -0.0311610   -0.0311650   -0.0031610   -0.3304996    0.3431154    0.8792280
  -0.0321480   -0.0321770   -0.0024910   -0.0436787    0.5057837    0.8615538
  -0.0329050   -0.0340800   -0.0017890    0.2909809    0.4732770    0.8314680
  -0.0334830   -0.0348520   -0.0009080   -0.2167983    0.6608854    0.7184908
  -0.0336510   -0.0356360   -0.0004160    0.2413244    0.3608572    0.9008577
  -0.0340740   -0.0367540   -0.0000240    0.0529107    0.5274713    0.8479237
  -0.0341540   -0.0379790    0.0010750    0.1962939    0.4159453    0.8879517
  -0.0343950   -0.0410030    0.0023450    0.2982993    0.2448305    0.9225375
  -0.0345000   -0.0460600    0.0031420    0.2762816    0.0560825    0.9594390
  -0.0335910   -0.0497780    0.0026860    0.2928167   -0.1041665    0.9504776
  -0.0295150   -0.0535190    0.0006960    0.6209979    0.2158698    0.7534998
  -0.0275390   -0.0560270   -0.0014380   -0.3417372    0.3958769   -0.8523480
  -0.0928850   -0.0303020   -0.0585660   -0.2634478   -0.9388882    0.2215494
  -0.0723710   -0.0125870   -0.0276990   -0.1793996    0.9464389   -0.2684572
  -0.0417460   -0.0619970   -0.0080090    0.4859297   -0.7728506   -0.4081352
  -0.1013310   -0.0297430   -0.0740120   -0.8755405    0.4793700   -0.0602764
  -0.1034570   -0.1394570   -0.0582830   -0.9165710   -0.3948675   -0.0630662
  -0.1044890   -0.0622590   -0.0709290   -0.8808863    0.1237405    0.4568671
  -0.1029720   -0.1330910   -0.0626770    0.8017643   -0.1045115   -0.5884313
  -0.0433000   -0.0201500   -0.0080480    0.8771287   -0.4740984    0.0766547
  -0.0453950   -0.0137570   -0.0102640    0.6894808    0.0632581   -0.7215363
  -0.0500770   -0.0089110   -0.0114660    0.4528757    0.3036001   -0.8382903
  -0.0565360   -0.0060960   -0.0127500   -0.1217883    0.9004232   -0.4176190
  -0.0588600   -0.0087420   -0.0089140   -0.6423437    0.5589327    0.5243938
  -0.0532270   -0.0150190   -0.0048200   -0.7077682   -0.2781271    0.6493916
  -0.0493880   -0.0205450   -0.0041980   -0.3813576   -0.6001567    0.7031204
  -0.0463940   -0.0221520   -0.0062340    0.3436967   -0.7488169    0.5666973
  -0.0402280   -0.0159620   -0.0037350    0.7083839   -0.6245603   -0.3288109
  -0.0403170   -0.0113820   -0.0067360    0.5422480   -0.2478610   -0.8028275
  -0.0440050   -0.0059870   -0.0085120    0.3232627    0.0752517   -0.9433125
  -0.0456730   -0.0048580   -0.0087010   -0.0325591    0.9005212   -0.4335913
  -0.0513980   -0.0075700   -0.0007470   -0.6798714    0.5279111    0.5090037
  -0.0506560   -0.0110540   -0.0003830   -0.7986147   -0.1917623    0.5704751
  -0.0460480   -0.0171240    0.0019240   -0.3632445   -0.7631462    0.5344729
  -0.0439790   -0.0180600   -0.0006370    0.4103869   -0.8888726    0.2036862
  -0.0338840   -0.0126760    0.0010180    0.5103487   -0.8030664   -0.3076175
  -0.0325730   -0.0082350   -0.0042910    0.3602084   -0.5112466   -0.7803056
  -0.0336620   -0.0039720   -0.0057090    0.1758147    0.0883695   -0.9804489
  -0.0351550   -0.0026100   -0.0046920   -0.1154868    0.9562298   -0.2688629
  -0.0442660   -0.0089600    0.0097740   -0.6416823    0.6265176    0.4424021
  -0.0446900   -0.0111950    0.0101740   -0.8068716   -0.2380306    0.5406474
  -0.0401300   -0.0166450    0.0070700   -0.0164216   -0.9547562    0.2969359
  -0.0378920   -0.0151070    0.0040030    0.5073967   -0.8611803   -0.0302837
  -0.0302640   -0.0113370    0.0017960    0.3140909   -0.9132579   -0.2594358
  -0.0282840   -0.0072370   -0.0034370    0.1486320   -0.6480668   -0.7469391
  -0.0286210   -0.0033160   -0.0055380   -0.0615457    0.1575563   -0.9855902
  -0.0301050   -0.0018270   -0.0031770   -0.1981627    0.9537221   -0.2261541
  -0.0415420   -0.0088130    0.0140950   -0.5933679    0.6394114    0.4889454
  -0.0413830   -0.0122970    0.0146540   -0.4489262   -0.5115930    0.7326240
  -0.0374120   -0.0148320    0.0096860    0.3728764   -0.8994325    0.2280008
  -0.0347610   -0.0131870    0.0059060    0.4607563   -0.8870860    0.0279655
  -0.0262270   -0.0108910    0.0032170    0.1385933   -0.9730208   -0.1844516
  -0.0220870   -0.0062550   -0.0046710   -0.0164360   -0.7541298   -0.6565197
  -0.0220980   -0.0033530   -0.0067280   -0.2079300    0.0746034   -0.9752946
  -0.0224820   -0.0000690   -0.0043490   -0.2598516    0.9119918   -0.3174085
  -0.0371520   -0.0075630    0.0168900   -0.3596548    0.5876839    0.7247593
  -0.0365890   -0.0118500    0.0160690    0.0344104   -0.5435006    0.8387032
  -0.0322640   -0.0112280    0.0121230    0.4661243   -0.8351532    0.2919715
  -0.0292890   -0.0107220    0.0070250    0.2732434   -0.9513431    0.1424231
  -0.0191650   -0.0101050    0.0052820    0.3262794   -0.9434217    0.0591369
  -0.0100420   -0.0048720   -0.0074990    0.1156958   -0.8032310   -0.5843239
  -0.0091200   -0.0008380   -0.0093820    0.0063581    0.4616948   -0.8870161
  -0.0115140    0.0014510   -0.0061970   -0.1039313    0.9922610   -0.0679443
  -0.0316100   -0.0056680    0.0172660   -0.2395608    0.5115497    0.8251834
  -0.0335480   -0.0088150    0.0170160    0.1848687   -0.5366859    0.8232811
  -0.0306450   -0.0094100    0.0143740    0.3436593   -0.8427431    0.4143456
  -0.0254890   -0.0099270    0.0096780    0.1678751   -0.9389153    0.3004264
  -0.0169600   -0.0075140    0.0066590    0.3617879   -0.9267583    0.1011367
  -0.0014940   -0.0037860   -0.0081440    0.4415570   -0.6688711   -0.5980292
  -0.0028910   -0.0005050   -0.0068910    0.2768515    0.8226138   -0.4966485
  -0.0063670    0.0020160   -0.0030560    0.1078651    0.9870649   -0.1186090
