NORM_ASCII
2752 5412
   0.1060430    0.1278030   -0.1141080   -0.7171215   -0.4928445    0.4927891
   0.1002180    0.1041290    0.1195280    0.6387773    0.1986566    0.7433029
   0.0974850    0.0976260    0.1151660    0.1265212   -0.9738079   -0.1889192
   0.0958690    0.1076870    0.1149320   -0.3126380    0.9245280    0.2179574
   0.0931060    0.1044710    0.1121110   -0.7299983    0.0698325   -0.6798720
   0.1117610    0.1230410    0.1182340    0.4231593   -0.8810980    0.2111932
   0.1113510    0.1334730    0.1176140    0.6368618    0.6692367    0.3827915
   0.1062880    0.1345230    0.1136800   -0.5597781    0.7954704   -0.2321107
   0.1060430    0.1278030    0.1141080   -0.7171215   -0.4928445   -0.4927891
   0.0878170    0.0981400   -0.1224390   -0.5162751   -0.8560713    0.0245356
   0.0923530    0.1045240   -0.1264330   -0.1552884   -0.0369824   -0.9871767
   0.0891310    0.1067590   -0.1218590   -0.2404000    0.9182533   -0.3146723
   0.0854530    0.1028110   -0.1171700   -0.9266091    0.3690103    0.0722976
   0.1088910    0.1230200   -0.1216560    0.2550594   -0.9084354   -0.3311946
   0.1094000    0.1330850   -0.1223650    0.5675050    0.6429682   -0.5143247
   0.1044700    0.1342530   -0.1174720   -0.5049664    0.8203205    0.2684831
   0.1032900    0.1283460   -0.1171040   -0.7294298   -0.3916001    0.5608757
   0.0899480    0.1053050    0.1225570   -0.3174723    0.8858627    0.3383173
   0.0920060    0.1033770    0.1267080   -0.2155600    0.0472069    0.9753489
   0.0876050    0.0986090    0.1227160   -0.5830015   -0.8094262   -0.0702747
   0.0867500    0.1016970    0.1190790   -0.9214069    0.3880778   -0.0201249
   0.1088910    0.1230200    0.1216560    0.2550594   -0.9084354    0.3311946
   0.1094000    0.1330850    0.1223650    0.5675050    0.6429682    0.5143247
   0.1044700    0.1342530    0.1174720   -0.5049664    0.8203205   -0.2684831
   0.1032900    0.1283460    0.1171040   -0.7294298   -0.3916001   -0.5608757
   0.1053960    0.1231550   -0.1246820   -0.6216267   -0.6304981   -0.4648143
   0.1055710    0.1325140   -0.1260010    0.2255670    0.2998014   -0.9269513
   0.1017500    0.1334830   -0.1206910   -0.6663720    0.6600851   -0.3467507
   0.1006110    0.1282880   -0.1202480   -0.9429359   -0.1092341    0.3145471
   0.1053960    0.1231550    0.1246820   -0.4494967   -0.8479720    0.2808848
   0.1055710    0.1325140    0.1260010   -0.0540814    0.2708176    0.9611103
   0.1017500    0.1334830    0.1206910   -0.5532376    0.8208370    0.1419672
   0.1006110    0.1282880    0.1202480   -0.9901566   -0.0950494   -0.1027400
3 0 1 2 
3 3 0 2 
3 4 5 0 
3 6 0 3 
3 6 4 0 
3 0 5 1 
3 2 1 7 
3 5 8 1 
3 1 9 7 
3 1 8 9 
3 2 7 10 
3 11 3 2 
3 2 10 11 
3 12 3 13 
3 12 6 3 
3 8 13 3 
3 11 8 3 
3 4 6 12 
3 4 12 14 
3 4 14 5 
3 14 13 5 
3 5 13 8 
3 10 7 15 
3 7 16 15 
3 7 9 16 
3 8 11 9 
3 9 17 16 
3 9 11 17 
3 11 10 18 
3 10 15 18 
3 11 18 17 
3 14 12 13 
3 15 19 20 
3 15 16 19 
3 18 15 20 
3 16 21 19 
3 16 17 21 
3 17 22 21 
3 17 18 22 
3 18 20 22 
3 19 21 23 
3 20 19 24 
3 19 23 24 
3 22 20 25 
3 20 24 25 
3 21 26 23 
3 21 22 26 
3 22 25 26 
3 24 23 27 
3 23 26 28 
3 23 28 27 
3 24 27 29 
3 25 24 29 
3 25 29 30 
3 26 25 30 
3 26 30 28 
3 29 27 31 
3 27 28 32 
3 27 32 31 
3 28 30 33 
3 28 33 32 
3 29 31 34 
3 30 29 34 
3 30 34 33 
3 31 32 35 
3 34 31 36 
3 31 35 36 
3 32 37 35 
3 32 33 37 
3 33 38 37 
3 33 34 38 
3 34 36 38 
3 35 39 40 
3 35 37 39 
3 36 35 40 
3 36 40 41 
3 38 36 41 
3 37 42 39 
3 37 38 42 
3 38 41 42 
3 40 39 43 
3 39 44 43 
3 39 42 44 
3 40 43 45 
3 41 40 45 
3 41 45 46 
3 42 41 46 
3 42 46 44 
3 43 44 47 
3 45 43 48 
3 43 47 48 
3 44 46 49 
3 44 49 47 
3 45 48 50 
3 46 45 50 
3 46 50 49 
3 47 49 51 
3 47 51 52 
3 48 47 52 
3 50 48 53 
3 48 52 53 
3 49 54 51 
3 49 50 54 
3 50 53 54 
3 52 51 55 
3 51 54 56 
3 51 56 55 
3 52 55 57 
3 53 52 57 
3 53 57 58 
3 54 53 58 
3 54 58 56 
3 57 55 59 
3 55 56 60 
3 55 60 59 
3 56 58 61 
3 56 61 60 
3 58 57 62 
3 57 59 62 
3 58 62 61 
3 59 61 62 
3 59 60 61 
3 63 64 65 
3 63 65 66 
3 64 63 67 
3 63 66 68 
3 68 67 63 
3 64 69 65 
3 64 70 69 
3 64 67 70 
3 66 65 71 
3 65 69 72 
3 65 72 71 
3 68 66 73 
3 66 71 73 
3 67 74 75 
3 67 75 70 
3 74 67 68 
3 68 73 76 
3 77 68 76 
3 74 68 77 
3 69 78 72 
3 69 79 78 
3 70 79 69 
3 70 75 79 
3 71 80 81 
3 71 72 80 
3 73 71 81 
3 72 82 80 
3 72 78 82 
3 76 73 83 
3 73 81 83 
3 75 74 77 
3 75 77 79 
3 76 83 84 
3 77 76 85 
3 85 76 84 
3 79 77 85 
3 78 86 82 
3 79 85 78 
3 78 85 86 
3 81 80 87 
3 80 82 88 
3 80 88 87 
3 83 81 89 
3 81 87 89 
3 82 90 88 
3 82 86 90 
3 83 89 91 
3 84 83 91 
3 84 91 92 
3 85 84 86 
3 86 84 92 
3 86 92 90 
3 89 87 93 
3 87 88 94 
3 87 94 93 
3 88 90 95 
3 88 95 94 
3 91 89 96 
3 89 93 96 
3 90 92 97 
3 90 97 95 
3 91 96 98 
3 92 91 98 
3 92 98 97 
3 93 94 99 
3 93 99 100 
3 96 93 100 
3 94 95 101 
3 94 101 99 
3 95 97 102 
3 95 102 101 
3 98 96 103 
3 96 100 103 
3 97 104 102 
3 97 98 104 
3 98 103 104 
3 100 99 105 
3 99 101 106 
3 99 106 105 
3 100 105 107 
3 103 100 107 
3 101 102 108 
3 101 108 106 
3 102 104 109 
3 102 109 108 
3 104 103 110 
3 103 107 110 
3 104 110 109 
3 107 105 111 
3 105 106 112 
3 105 112 111 
3 106 108 113 
3 106 113 112 
3 110 107 114 
3 107 111 114 
3 108 109 115 
3 108 115 113 
3 109 110 116 
3 109 116 115 
3 110 114 116 
3 114 111 117 
3 111 112 118 
3 111 118 117 
3 112 113 119 
3 112 119 118 
3 113 115 120 
3 113 120 119 
3 116 114 121 
3 114 117 121 
3 115 116 122 
3 115 122 120 
3 116 121 122 
3 117 118 123 
3 121 117 124 
3 117 123 124 
3 118 119 125 
3 118 125 123 
3 119 120 126 
3 119 126 125 
3 120 122 127 
3 120 127 126 
3 122 121 128 
3 121 124 128 
3 122 128 127 
3 123 125 129 
3 123 129 130 
3 124 123 130 
3 124 130 131 
3 128 124 131 
3 125 126 132 
3 125 132 129 
3 126 133 132 
3 126 127 133 
3 127 134 133 
3 127 128 134 
3 128 131 134 
3 129 132 135 
3 129 135 136 
3 130 129 136 
3 131 130 137 
3 130 136 137 
3 131 137 138 
3 134 131 138 
3 132 133 139 
3 132 139 135 
3 133 134 140 
3 133 140 139 
3 134 138 140 
3 135 139 141 
3 135 141 142 
3 136 135 142 
3 137 136 143 
3 136 142 143 
3 138 137 144 
3 137 143 144 
3 140 138 145 
3 138 144 145 
3 139 140 146 
3 139 146 141 
3 140 145 146 
3 142 141 147 
3 147 141 146 
3 142 147 148 
3 143 142 148 
3 144 143 149 
3 143 148 149 
3 145 144 150 
3 144 149 150 
3 146 145 151 
3 145 150 151 
3 146 151 152 
3 152 147 146 
3 153 147 152 
3 148 147 153 
3 148 153 154 
3 148 154 149 
3 149 154 150 
3 154 155 150 
3 151 150 155 
3 152 151 156 
3 151 155 156 
3 153 152 157 
3 152 156 157 
3 154 153 157 
3 154 157 155 
3 156 155 157 
3 158 159 160 
3 159 158 161 
3 158 160 162 
3 161 158 162 
3 159 163 164 
3 159 164 160 
3 159 161 163 
3 160 164 165 
3 160 165 166 
3 162 160 166 
3 161 162 167 
3 168 161 167 
3 161 168 163 
3 167 162 169 
3 162 166 169 
3 168 170 163 
3 163 170 164 
3 164 171 165 
3 171 164 172 
3 172 164 173 
3 164 170 173 
3 166 165 174 
3 165 175 174 
3 165 171 175 
3 166 174 176 
3 169 166 176 
3 168 167 173 
3 173 167 177 
3 167 169 177 
3 170 168 173 
3 177 169 178 
3 169 176 178 
3 171 179 175 
3 171 172 179 
3 172 180 179 
3 172 177 180 
3 173 177 172 
3 174 181 182 
3 174 175 181 
3 176 174 182 
3 175 183 181 
3 175 179 183 
3 176 182 184 
3 178 176 184 
3 177 178 180 
3 180 178 185 
3 178 184 185 
3 179 186 183 
3 179 180 186 
3 180 185 186 
3 181 187 188 
3 181 183 187 
3 182 181 188 
3 182 188 189 
3 184 182 189 
3 183 186 190 
3 183 190 187 
3 184 189 191 
3 185 184 191 
3 186 185 192 
3 185 191 192 
3 186 192 190 
3 188 187 193 
3 187 190 194 
3 187 194 193 
3 188 193 195 
3 189 188 195 
3 189 195 196 
3 191 189 196 
3 190 197 194 
3 190 192 197 
3 192 191 198 
3 191 196 198 
3 192 198 197 
3 195 193 199 
3 193 194 200 
3 193 200 199 
3 194 201 200 
3 194 197 201 
3 195 199 202 
3 196 195 202 
3 196 202 203 
3 198 196 203 
3 197 198 204 
3 197 204 201 
3 198 203 204 
3 202 199 205 
3 199 206 205 
3 199 200 206 
3 200 201 207 
3 200 207 206 
3 201 204 208 
3 201 208 207 
3 202 205 209 
3 203 202 209 
3 203 209 210 
3 204 203 210 
3 204 210 208 
3 205 206 211 
3 209 205 212 
3 205 211 212 
3 206 207 213 
3 206 213 211 
3 207 214 213 
3 207 208 214 
3 208 215 214 
3 208 210 215 
3 210 209 216 
3 209 212 216 
3 210 216 215 
3 211 217 218 
3 211 213 217 
3 212 211 218 
3 212 218 219 
3 216 212 219 
3 213 220 217 
3 213 214 220 
3 214 221 220 
3 214 215 221 
3 215 216 222 
3 215 222 221 
3 216 219 222 
3 218 217 223 
3 217 224 223 
3 217 220 224 
3 218 223 225 
3 219 218 225 
3 219 225 226 
3 222 219 226 
3 220 221 227 
3 220 227 224 
3 221 222 228 
3 221 228 227 
3 222 226 228 
3 225 223 229 
3 223 230 229 
3 223 224 230 
3 224 227 231 
3 224 231 230 
3 226 225 232 
3 225 229 232 
3 226 232 233 
3 228 226 233 
3 227 228 234 
3 227 234 231 
3 228 233 234 
3 232 229 235 
3 229 236 235 
3 229 230 236 
3 230 237 236 
3 230 231 237 
3 231 238 237 
3 231 234 238 
3 232 235 239 
3 233 232 239 
3 233 239 240 
3 234 233 240 
3 234 240 238 
3 239 235 241 
3 235 242 241 
3 235 236 242 
3 236 243 242 
3 236 237 243 
3 237 238 244 
3 237 244 243 
3 238 240 245 
3 238 245 244 
3 240 239 246 
3 239 241 246 
3 240 246 245 
3 246 241 247 
3 241 242 247 
3 242 248 247 
3 242 243 248 
3 243 244 249 
3 243 249 250 
3 248 243 250 
3 249 244 245 
3 245 246 251 
3 249 245 251 
3 246 247 251 
3 247 248 251 
3 251 248 250 
3 251 250 249 
3 252 253 254 
3 255 252 256 
3 252 254 256 
3 257 258 252 
3 258 253 252 
3 257 252 255 
3 258 259 253 
3 259 260 253 
3 253 260 261 
3 253 261 254 
3 254 262 256 
3 261 262 254 
3 263 257 255 
3 255 256 264 
3 263 255 265 
3 265 255 264 
3 256 262 264 
3 266 257 263 
3 267 258 257 
3 266 267 257 
3 267 268 258 
3 268 259 258 
3 268 269 259 
3 269 270 259 
3 259 270 260 
3 270 271 260 
3 260 271 262 
3 260 262 261 
3 264 262 272 
3 271 272 262 
3 273 263 265 
3 274 263 273 
3 274 266 263 
3 265 264 272 
3 273 265 271 
3 271 265 272 
3 275 267 266 
3 276 266 274 
3 276 275 266 
3 275 277 267 
3 277 268 267 
3 277 278 268 
3 278 269 268 
3 269 279 270 
3 280 279 269 
3 280 269 278 
3 270 273 271 
3 279 273 270 
3 279 274 273 
3 281 276 274 
3 281 274 279 
3 282 283 275 
3 283 277 275 
3 282 275 276 
3 284 282 276 
3 284 276 281 
3 285 278 277 
3 277 283 285 
3 286 280 278 
3 286 278 285 
3 280 281 279 
3 286 287 280 
3 287 281 280 
3 287 284 281 
3 288 283 282 
3 289 288 282 
3 289 282 284 
3 290 285 283 
3 288 290 283 
3 291 284 287 
3 291 289 284 
3 290 292 285 
3 292 286 285 
3 292 293 286 
3 293 287 286 
3 293 291 287 
3 294 295 288 
3 294 288 289 
3 295 290 288 
3 296 294 289 
3 296 289 291 
3 295 297 290 
3 297 292 290 
3 298 291 293 
3 298 296 291 
3 297 299 292 
3 299 293 292 
3 299 298 293 
3 300 301 294 
3 300 294 296 
3 301 295 294 
3 301 302 295 
3 302 297 295 
3 303 300 296 
3 303 296 298 
3 302 304 297 
3 304 299 297 
3 305 303 298 
3 305 298 299 
3 304 305 299 
3 306 307 300 
3 307 301 300 
3 306 300 303 
3 307 308 301 
3 308 302 301 
3 309 304 302 
3 308 309 302 
3 310 303 305 
3 310 306 303 
3 309 311 304 
3 311 305 304 
3 311 310 305 
3 312 313 306 
3 313 307 306 
3 312 306 310 
3 313 314 307 
3 314 308 307 
3 315 309 308 
3 314 315 308 
3 315 316 309 
3 316 311 309 
3 317 312 310 
3 317 310 311 
3 316 317 311 
3 318 312 317 
3 319 313 312 
3 318 319 312 
3 319 320 313 
3 320 314 313 
3 321 315 314 
3 320 321 314 
3 321 322 315 
3 322 316 315 
3 322 323 316 
3 323 317 316 
3 323 318 317 
3 324 318 323 
3 325 319 318 
3 324 325 318 
3 325 326 319 
3 326 320 319 
3 327 321 320 
3 326 327 320 
3 328 322 321 
3 327 328 321 
3 329 323 322 
3 328 329 322 
3 329 324 323 
3 330 325 324 
3 331 330 324 
3 331 324 329 
3 332 326 325 
3 330 332 325 
3 333 327 326 
3 332 333 326 
3 334 328 327 
3 333 334 327 
3 335 329 328 
3 334 335 328 
3 335 331 329 
3 336 332 330 
3 337 336 330 
3 337 330 331 
3 338 331 335 
3 338 337 331 
3 339 333 332 
3 336 339 332 
3 340 334 333 
3 339 340 333 
3 340 341 334 
3 341 335 334 
3 341 338 335 
3 342 339 336 
3 343 342 336 
3 336 337 344 
3 336 344 343 
3 344 337 338 
3 338 341 345 
3 338 345 346 
3 346 344 338 
3 342 347 339 
3 347 340 339 
3 347 345 340 
3 345 341 340 
3 342 345 347 
3 344 342 343 
3 345 342 346 
3 346 342 344 
3 348 349 350 
3 348 351 349 
3 352 348 353 
3 353 348 350 
3 354 351 348 
3 352 354 348 
3 355 350 349 
3 355 349 356 
3 351 356 349 
3 353 350 357 
3 355 357 350 
3 354 358 351 
3 351 359 356 
3 358 359 351 
3 360 352 361 
3 360 362 352 
3 361 352 353 
3 362 354 352 
3 361 353 363 
3 363 353 357 
3 364 358 354 
3 362 364 354 
3 365 363 355 
3 365 355 366 
3 363 357 355 
3 355 356 366 
3 359 366 356 
3 358 367 359 
3 368 367 358 
3 364 368 358 
3 359 365 366 
3 367 365 359 
3 369 362 360 
3 370 369 360 
3 371 360 361 
3 370 360 371 
3 372 361 363 
3 371 361 372 
3 369 373 362 
3 373 364 362 
3 372 363 365 
3 374 368 364 
3 373 374 364 
3 367 372 365 
3 375 372 367 
3 368 375 367 
3 376 375 368 
3 374 376 368 
3 377 373 369 
3 378 369 370 
3 378 377 369 
3 379 370 380 
3 379 378 370 
3 380 370 371 
3 375 371 372 
3 380 371 375 
3 381 374 373 
3 377 381 373 
3 382 376 374 
3 381 382 374 
3 376 380 375 
3 383 380 376 
3 382 383 376 
3 384 381 377 
3 385 377 378 
3 385 384 377 
3 386 378 379 
3 386 385 378 
3 387 379 383 
3 387 386 379 
3 383 379 380 
3 384 388 381 
3 388 382 381 
3 389 383 382 
3 388 389 382 
3 389 387 383 
3 390 388 384 
3 391 384 385 
3 391 390 384 
3 392 385 386 
3 392 391 385 
3 393 386 387 
3 393 392 386 
3 394 393 387 
3 394 387 389 
3 395 389 388 
3 390 395 388 
3 395 394 389 
3 396 397 390 
3 396 390 391 
3 397 395 390 
3 398 396 391 
3 398 391 392 
3 399 392 393 
3 399 398 392 
3 400 393 394 
3 400 399 393 
3 401 394 395 
3 401 400 394 
3 397 401 395 
3 402 396 398 
3 402 403 396 
3 403 397 396 
3 403 404 397 
3 404 401 397 
3 405 398 399 
3 405 402 398 
3 406 405 399 
3 406 399 400 
3 407 400 401 
3 407 406 400 
3 404 407 401 
3 408 402 405 
3 408 409 402 
3 409 403 402 
3 410 404 403 
3 409 410 403 
3 411 407 404 
3 410 411 404 
3 412 408 405 
3 412 405 406 
3 413 412 406 
3 413 406 407 
3 411 413 407 
3 414 409 408 
3 415 414 408 
3 415 408 412 
3 416 410 409 
3 414 416 409 
3 417 411 410 
3 416 417 410 
3 417 418 411 
3 418 413 411 
3 419 412 413 
3 419 415 412 
3 418 419 413 
3 420 416 414 
3 421 420 414 
3 421 414 415 
3 422 421 415 
3 422 415 419 
3 423 417 416 
3 420 423 416 
3 424 418 417 
3 423 424 417 
3 424 425 418 
3 425 419 418 
3 425 422 419 
3 426 423 420 
3 427 426 420 
3 427 420 421 
3 428 427 421 
3 428 421 422 
3 429 428 422 
3 429 422 425 
3 430 424 423 
3 426 430 423 
3 431 425 424 
3 430 431 424 
3 431 429 425 
3 427 432 426 
3 430 426 433 
3 426 432 433 
3 434 432 427 
3 434 427 428 
3 435 434 428 
3 435 428 429 
3 436 429 431 
3 436 435 429 
3 433 431 430 
3 433 436 431 
3 432 434 437 
3 438 433 432 
3 432 437 438 
3 439 436 433 
3 438 439 433 
3 437 434 440 
3 441 440 434 
3 441 434 435 
3 436 441 435 
3 436 439 441 
3 441 438 437 
3 441 437 440 
3 438 441 439 
3 442 443 444 
3 445 442 444 
3 446 447 442 
3 448 442 445 
3 448 446 442 
3 442 447 443 
3 443 449 450 
3 443 450 451 
3 447 449 443 
3 444 443 451 
3 445 444 452 
3 444 451 453 
3 452 444 453 
3 454 445 455 
3 455 445 452 
3 454 448 445 
3 446 456 447 
3 457 446 448 
3 457 458 446 
3 458 456 446 
3 456 459 447 
3 447 459 449 
3 460 457 448 
3 460 448 454 
3 459 461 449 
3 449 461 462 
3 449 462 450 
3 451 450 463 
3 450 462 464 
3 450 464 463 
3 451 463 465 
3 453 451 465 
3 466 452 467 
3 452 453 467 
3 455 452 466 
3 453 465 468 
3 467 453 468 
3 469 460 454 
3 469 454 470 
3 470 454 455 
3 471 455 466 
3 470 455 471 
3 456 472 459 
3 458 473 456 
3 473 472 456 
3 474 458 457 
3 475 474 457 
3 475 457 460 
3 474 476 458 
3 476 473 458 
3 459 471 461 
3 472 471 459 
3 477 460 469 
3 477 475 460 
3 471 466 461 
3 461 478 462 
3 461 466 478 
3 462 478 479 
3 462 479 464 
3 463 464 480 
3 463 480 481 
3 465 463 481 
3 464 479 482 
3 464 482 480 
3 468 465 483 
3 465 481 483 
3 466 467 478 
3 478 467 484 
3 467 468 484 
3 468 483 485 
3 484 468 485 
3 486 469 487 
3 486 477 469 
3 487 469 470 
3 487 470 472 
3 472 470 471 
3 473 487 472 
3 476 488 473 
3 488 487 473 
3 489 474 475 
3 490 476 474 
3 489 490 474 
3 491 489 475 
3 491 475 477 
3 492 488 476 
3 490 492 476 
3 493 491 477 
3 493 477 486 
3 478 484 479 
3 479 484 494 
3 479 494 482 
3 480 495 496 
3 480 482 495 
3 481 480 496 
3 481 496 497 
3 483 481 497 
3 482 494 498 
3 482 498 495 
3 485 483 499 
3 483 497 499 
3 484 485 494 
3 494 485 500 
3 485 499 500 
3 501 486 488 
3 488 486 487 
3 501 493 486 
3 492 501 488 
3 502 489 491 
3 503 490 489 
3 502 503 489 
3 503 504 490 
3 504 492 490 
3 505 502 491 
3 505 491 493 
3 504 506 492 
3 506 501 492 
3 507 493 501 
3 507 505 493 
3 494 500 498 
3 495 508 509 
3 495 498 508 
3 496 495 509 
3 497 496 510 
3 496 509 510 
3 497 510 511 
3 499 497 511 
3 498 500 512 
3 498 512 508 
3 500 499 513 
3 499 511 513 
3 500 513 512 
3 506 507 501 
3 507 502 505 
3 507 503 502 
3 504 503 507 
3 504 507 506 
3 509 508 514 
3 508 515 514 
3 508 512 515 
3 509 514 516 
3 510 509 516 
3 510 516 517 
3 511 510 517 
3 511 517 518 
3 513 511 518 
3 512 519 515 
3 512 513 519 
3 513 518 519 
3 516 514 520 
3 514 521 520 
3 514 515 521 
3 515 522 521 
3 515 519 522 
3 516 520 523 
3 517 516 523 
3 517 523 524 
3 518 517 524 
3 518 524 525 
3 519 518 525 
3 519 525 522 
3 523 520 526 
3 520 527 526 
3 520 521 527 
3 521 528 527 
3 521 522 528 
3 522 529 528 
3 522 525 529 
3 523 526 530 
3 524 523 530 
3 524 530 531 
3 525 524 531 
3 525 531 529 
3 530 526 532 
3 526 533 532 
3 526 527 533 
3 527 534 533 
3 527 528 534 
3 528 535 534 
3 528 529 535 
3 529 536 535 
3 529 531 536 
3 530 532 537 
3 531 530 537 
3 531 537 536 
3 535 532 533 
3 535 537 532 
3 535 533 534 
3 535 536 537 
3 538 539 540 
3 541 542 538 
3 543 541 538 
3 543 538 544 
3 538 542 539 
3 544 538 540 
3 539 545 546 
3 539 547 545 
3 540 539 546 
3 542 547 539 
3 548 540 549 
3 540 546 549 
3 544 540 548 
3 541 550 542 
3 551 541 543 
3 551 552 541 
3 552 550 541 
3 542 553 547 
3 550 553 542 
3 554 543 544 
3 555 543 554 
3 555 551 543 
3 556 544 548 
3 554 544 556 
3 546 545 557 
3 545 558 559 
3 545 559 557 
3 547 558 545 
3 546 557 560 
3 549 546 560 
3 547 561 558 
3 553 561 547 
3 562 548 563 
3 548 549 563 
3 556 548 562 
3 563 549 564 
3 549 560 564 
3 550 565 553 
3 566 565 550 
3 552 566 550 
3 567 551 555 
3 567 568 551 
3 568 552 551 
3 568 569 552 
3 569 566 552 
3 553 570 561 
3 565 570 553 
3 571 554 572 
3 571 555 554 
3 572 554 556 
3 573 555 571 
3 573 567 555 
3 570 556 562 
3 572 556 570 
3 557 574 575 
3 560 557 575 
3 557 559 574 
3 558 576 577 
3 558 577 559 
3 561 576 558 
3 559 577 578 
3 559 578 574 
3 560 575 579 
3 564 560 579 
3 570 562 561 
3 561 562 576 
3 562 563 576 
3 576 563 580 
3 563 564 580 
3 580 564 581 
3 564 579 581 
3 582 572 565 
3 566 582 565 
3 565 572 570 
3 569 583 566 
3 583 582 566 
3 584 567 573 
3 584 585 567 
3 585 568 567 
3 586 569 568 
3 585 586 568 
3 586 587 569 
3 587 583 569 
3 588 571 582 
3 588 573 571 
3 582 571 572 
3 589 573 588 
3 589 584 573 
3 574 590 591 
3 574 578 590 
3 575 574 591 
3 575 591 592 
3 579 575 592 
3 576 580 577 
3 577 593 578 
3 577 580 593 
3 578 594 590 
3 578 593 594 
3 579 592 595 
3 581 579 595 
3 580 581 593 
3 593 581 596 
3 581 595 596 
3 583 588 582 
3 597 588 583 
3 587 597 583 
3 598 585 584 
3 599 584 589 
3 599 598 584 
3 598 600 585 
3 600 586 585 
3 600 601 586 
3 601 587 586 
3 601 602 587 
3 602 597 587 
3 597 589 588 
3 603 589 597 
3 603 599 589 
3 596 590 594 
3 595 590 596 
3 595 591 590 
3 595 592 591 
3 593 596 594 
3 602 603 597 
3 604 600 598 
3 604 598 605 
3 598 599 605 
3 605 599 603 
3 604 606 600 
3 606 601 600 
3 607 602 601 
3 606 607 601 
3 608 603 602 
3 607 608 602 
3 608 605 603 
3 609 606 604 
3 610 609 604 
3 610 604 605 
3 611 605 608 
3 611 610 605 
3 612 607 606 
3 609 612 606 
3 613 608 607 
3 612 613 607 
3 613 611 608 
3 614 609 610 
3 614 612 609 
3 615 610 611 
3 615 616 610 
3 614 610 616 
3 617 615 611 
3 617 611 613 
3 618 613 612 
3 614 618 612 
3 618 617 613 
3 619 614 616 
3 619 620 614 
3 620 618 614 
3 621 622 615 
3 621 615 617 
3 622 616 615 
3 623 619 616 
3 622 623 616 
3 624 621 617 
3 617 618 624 
3 620 624 618 
3 625 626 619 
3 626 620 619 
3 625 619 623 
3 626 627 620 
3 627 624 620 
3 628 622 621 
3 629 628 621 
3 629 621 624 
3 628 630 622 
3 630 623 622 
3 630 625 623 
3 627 629 624 
3 629 626 625 
3 629 625 630 
3 629 627 626 
3 629 630 628 
3 631 632 633 
3 634 632 631 
3 635 634 631 
3 635 631 636 
3 636 631 637 
3 631 633 637 
3 632 638 639 
3 632 639 633 
3 640 638 632 
3 634 640 632 
3 633 641 642 
3 637 633 642 
3 633 639 641 
3 643 634 635 
3 644 640 634 
3 643 644 634 
3 645 635 636 
3 646 643 635 
3 646 635 645 
3 647 636 648 
3 636 637 648 
3 645 636 647 
3 648 637 649 
3 637 642 649 
3 640 650 638 
3 650 651 638 
3 638 651 652 
3 638 652 639 
3 639 652 653 
3 639 653 641 
3 644 654 640 
3 654 650 640 
3 641 655 656 
3 641 653 655 
3 642 641 656 
3 642 656 657 
3 649 642 657 
3 658 659 643 
3 659 644 643 
3 658 643 646 
3 660 654 644 
3 659 660 644 
3 661 645 647 
3 662 645 661 
3 662 646 645 
3 663 646 662 
3 663 658 646 
3 647 648 664 
3 661 647 651 
3 651 647 664 
3 664 648 665 
3 648 649 665 
3 665 649 666 
3 649 657 666 
3 650 661 651 
3 654 667 650 
3 667 661 650 
3 651 664 652 
3 652 664 668 
3 652 668 653 
3 653 669 655 
3 653 668 669 
3 670 667 654 
3 660 670 654 
3 655 669 671 
3 656 655 672 
3 655 671 672 
3 657 656 673 
3 656 672 673 
3 657 673 674 
3 666 657 674 
3 675 659 658 
3 676 675 658 
3 676 658 663 
3 677 660 659 
3 675 677 659 
3 677 678 660 
3 678 670 660 
3 667 662 661 
3 679 662 667 
3 679 663 662 
3 680 663 679 
3 680 676 663 
3 664 665 668 
3 668 665 681 
3 665 666 681 
3 681 666 682 
3 666 674 682 
3 670 679 667 
3 668 681 669 
3 669 683 671 
3 669 681 683 
3 684 679 670 
3 678 684 670 
3 671 683 685 
3 672 671 686 
3 671 685 686 
3 672 686 687 
3 673 672 687 
3 674 673 688 
3 673 687 688 
3 674 688 689 
3 682 674 689 
3 690 691 675 
3 690 675 676 
3 691 677 675 
3 692 690 676 
3 692 676 680 
3 693 678 677 
3 691 693 677 
3 694 684 678 
3 693 694 678 
3 684 680 679 
3 695 692 680 
3 695 680 684 
3 681 682 683 
3 683 682 696 
3 682 689 696 
3 683 696 685 
3 694 695 684 
3 686 685 697 
3 685 698 697 
3 685 696 698 
3 687 686 699 
3 686 697 699 
3 687 699 700 
3 688 687 700 
3 689 688 701 
3 688 700 701 
3 696 689 702 
3 689 701 702 
3 703 691 690 
3 704 690 692 
3 704 703 690 
3 703 705 691 
3 705 693 691 
3 706 692 695 
3 706 704 692 
3 707 694 693 
3 705 707 693 
3 707 708 694 
3 708 695 694 
3 708 706 695 
3 696 702 698 
3 699 697 709 
3 697 710 709 
3 697 698 710 
3 698 711 710 
3 698 702 711 
3 700 699 712 
3 699 709 712 
3 701 700 713 
3 700 712 713 
3 702 701 714 
3 701 713 714 
3 702 714 711 
3 715 705 703 
3 716 703 704 
3 716 715 703 
3 717 704 706 
3 717 716 704 
3 715 718 705 
3 718 707 705 
3 719 706 708 
3 719 717 706 
3 718 720 707 
3 720 708 707 
3 720 719 708 
3 712 709 710 
3 712 710 711 
3 711 714 712 
3 714 713 712 
3 721 722 715 
3 722 718 715 
3 721 715 716 
3 723 716 717 
3 723 721 716 
3 724 717 719 
3 724 723 717 
3 725 720 718 
3 722 725 718 
3 726 719 720 
3 726 724 719 
3 725 726 720 
3 726 722 721 
3 726 721 723 
3 726 725 722 
3 726 723 724 
3 727 728 729 
3 730 728 727 
3 731 727 732 
3 731 730 727 
3 727 729 733 
3 732 727 733 
3 728 734 729 
3 730 735 728 
3 735 736 728 
3 728 736 734 
3 733 729 737 
3 729 738 737 
3 729 734 738 
3 739 730 731 
3 739 740 730 
3 740 735 730 
3 741 731 742 
3 741 739 731 
3 742 731 732 
3 742 732 736 
3 732 733 743 
3 736 732 743 
3 733 737 744 
3 743 733 744 
3 736 743 734 
3 734 743 745 
3 734 745 738 
3 740 746 735 
3 746 742 735 
3 735 742 736 
3 744 737 747 
3 737 738 748 
3 737 748 747 
3 738 745 749 
3 738 749 748 
3 750 740 739 
3 751 750 739 
3 751 739 741 
3 752 746 740 
3 750 752 740 
3 746 741 742 
3 753 751 741 
3 753 741 746 
3 743 744 745 
3 744 747 754 
3 745 744 754 
3 745 754 749 
3 752 753 746 
3 754 747 755 
3 747 748 756 
3 747 756 755 
3 748 749 757 
3 748 757 756 
3 749 754 758 
3 749 758 757 
3 759 752 750 
3 760 759 750 
3 760 750 751 
3 761 760 751 
3 761 751 753 
3 762 753 752 
3 759 762 752 
3 762 761 753 
3 754 755 758 
3 758 755 763 
3 755 756 764 
3 755 764 763 
3 756 757 765 
3 756 765 764 
3 757 758 766 
3 757 766 765 
3 758 763 766 
3 767 768 759 
3 767 759 760 
3 768 762 759 
3 769 760 761 
3 769 767 760 
3 770 769 761 
3 770 761 762 
3 768 770 762 
3 766 763 771 
3 763 764 772 
3 763 772 771 
3 764 765 773 
3 764 773 772 
3 765 766 774 
3 765 774 773 
3 766 771 774 
3 775 767 769 
3 775 776 767 
3 776 768 767 
3 776 777 768 
3 777 770 768 
3 778 769 770 
3 778 775 769 
3 777 778 770 
3 774 771 779 
3 771 772 780 
3 771 780 779 
3 772 773 781 
3 772 781 780 
3 773 774 782 
3 773 782 781 
3 774 779 782 
3 783 775 778 
3 784 776 775 
3 775 783 784 
3 785 777 776 
3 784 785 776 
3 785 786 777 
3 786 778 777 
3 786 783 778 
3 782 779 780 
3 782 780 781 
3 787 783 786 
3 787 788 783 
3 788 784 783 
3 788 785 784 
3 788 789 785 
3 789 786 785 
3 789 787 786 
3 787 789 788 
3 790 791 792 
3 790 792 793 
3 794 790 793 
3 795 791 790 
3 796 795 790 
3 796 790 794 
3 795 797 791 
3 797 798 791 
3 792 791 798 
3 792 799 800 
3 799 792 798 
3 792 800 793 
3 800 801 793 
3 794 793 801 
3 802 794 801 
3 803 796 794 
3 803 794 802 
3 804 797 795 
3 805 804 795 
3 805 795 796 
3 806 805 796 
3 806 796 803 
3 797 807 798 
3 804 808 797 
3 808 807 797 
3 798 802 799 
3 807 802 798 
3 800 799 801 
3 802 801 799 
3 807 803 802 
3 809 806 803 
3 809 803 807 
3 810 808 804 
3 811 810 804 
3 811 804 805 
3 812 811 805 
3 812 805 806 
3 813 812 806 
3 813 806 809 
3 808 809 807 
3 810 814 808 
3 814 809 808 
3 814 813 809 
3 815 814 810 
3 816 815 810 
3 816 810 811 
3 817 816 811 
3 817 811 812 
3 818 812 813 
3 818 817 812 
3 819 818 813 
3 819 813 814 
3 815 819 814 
3 820 819 815 
3 821 820 815 
3 821 815 816 
3 822 821 816 
3 822 816 817 
3 823 822 817 
3 823 817 818 
3 824 823 818 
3 824 818 819 
3 820 824 819 
3 825 824 820 
3 826 825 820 
3 826 820 821 
3 827 826 821 
3 827 821 822 
3 828 822 823 
3 828 827 822 
3 829 828 823 
3 829 823 824 
3 825 829 824 
3 830 829 825 
3 831 830 825 
3 831 825 826 
3 832 826 827 
3 832 831 826 
3 833 827 828 
3 833 832 827 
3 834 833 828 
3 834 828 829 
3 830 834 829 
3 835 834 830 
3 836 835 830 
3 836 830 831 
3 837 831 832 
3 837 836 831 
3 838 837 832 
3 838 832 833 
3 839 838 833 
3 839 833 834 
3 835 839 834 
3 836 839 835 
3 836 837 838 
3 836 838 839 
3 840 841 842 
3 843 840 842 
3 844 845 840 
3 846 844 840 
3 846 840 843 
3 840 845 841 
3 845 847 841 
3 842 841 848 
3 841 849 848 
3 841 847 849 
3 843 842 848 
3 848 850 843 
3 843 850 851 
3 843 851 846 
3 844 852 845 
3 853 852 844 
3 854 853 844 
3 854 844 846 
3 845 855 847 
3 852 855 845 
3 846 851 856 
3 846 856 854 
3 850 849 847 
3 850 847 855 
3 848 849 850 
3 851 850 855 
3 851 855 857 
3 856 851 857 
3 852 857 855 
3 853 858 852 
3 858 857 852 
3 859 858 853 
3 860 859 853 
3 860 853 854 
3 854 856 861 
3 854 861 860 
3 856 857 862 
3 861 856 862 
3 858 862 857 
3 859 863 858 
3 863 862 858 
3 864 863 859 
3 865 864 859 
3 865 859 860 
3 860 861 866 
3 860 866 865 
3 861 862 867 
3 866 861 867 
3 863 867 862 
3 864 868 863 
3 868 867 863 
3 869 868 864 
3 870 869 864 
3 870 864 865 
3 865 866 871 
3 865 871 870 
3 866 867 872 
3 871 866 872 
3 868 872 867 
3 869 873 868 
3 873 872 868 
3 874 873 869 
3 875 874 869 
3 875 869 870 
3 870 871 876 
3 870 876 875 
3 871 872 877 
3 876 871 877 
3 873 877 872 
3 874 878 873 
3 878 877 873 
3 879 878 874 
3 880 879 874 
3 880 874 875 
3 875 876 881 
3 875 881 880 
3 876 877 882 
3 881 876 882 
3 878 882 877 
3 879 883 878 
3 883 882 878 
3 884 883 879 
3 885 884 879 
3 885 879 880 
3 880 881 886 
3 880 886 885 
3 881 882 887 
3 886 881 887 
3 883 887 882 
3 884 888 883 
3 888 887 883 
3 889 888 884 
3 890 889 884 
3 890 884 885 
3 885 886 891 
3 885 891 890 
3 886 887 892 
3 891 886 892 
3 888 892 887 
3 889 893 888 
3 893 892 888 
3 894 893 889 
3 895 894 889 
3 895 889 890 
3 890 896 895 
3 890 891 896 
3 891 892 897 
3 896 891 897 
3 893 897 892 
3 894 898 893 
3 898 897 893 
3 899 898 894 
3 900 899 894 
3 900 894 895 
3 895 896 901 
3 895 901 900 
3 896 897 902 
3 901 896 902 
3 898 902 897 
3 899 903 898 
3 903 902 898 
3 904 903 899 
3 905 904 899 
3 905 899 900 
3 900 906 905 
3 900 901 906 
3 901 902 907 
3 906 901 907 
3 903 907 902 
3 904 908 903 
3 908 907 903 
3 909 904 905 
3 909 910 904 
3 910 908 904 
3 905 906 911 
3 905 911 909 
3 906 907 912 
3 911 906 912 
3 908 912 907 
3 910 913 908 
3 913 912 908 
3 914 910 909 
3 909 911 914 
3 915 913 910 
3 914 915 910 
3 911 912 916 
3 911 917 914 
3 916 917 911 
3 913 916 912 
3 915 918 913 
3 918 916 913 
3 915 914 917 
3 915 917 918 
3 918 919 916 
3 917 916 919 
3 917 919 918 
3 920 921 922 
3 920 922 923 
3 924 925 920 
3 924 920 926 
3 925 921 920 
3 926 920 923 
3 925 927 921 
3 921 928 922 
3 927 929 921 
3 921 929 928 
3 923 922 930 
3 922 928 931 
3 922 931 930 
3 932 923 933 
3 926 923 932 
3 923 930 933 
3 934 925 924 
3 924 935 934 
3 924 936 935 
3 926 936 924 
3 934 937 925 
3 937 927 925 
3 932 938 926 
3 926 938 936 
3 937 939 927 
3 927 940 929 
3 939 940 927 
3 929 941 928 
3 928 942 931 
3 928 941 942 
3 929 943 941 
3 940 943 929 
3 933 930 944 
3 931 944 930 
3 931 942 944 
3 932 933 945 
3 945 946 932 
3 932 946 938 
3 933 944 945 
3 947 937 934 
3 934 935 948 
3 934 948 947 
3 949 935 936 
3 950 948 935 
3 950 935 949 
3 951 936 938 
3 949 936 951 
3 947 952 937 
3 952 939 937 
3 951 938 943 
3 943 938 946 
3 952 953 939 
3 939 954 940 
3 953 954 939 
3 940 951 943 
3 954 951 940 
3 941 944 942 
3 941 946 944 
3 943 946 941 
3 945 944 946 
3 955 952 947 
3 947 948 956 
3 947 956 955 
3 957 956 948 
3 957 948 950 
3 954 949 951 
3 958 950 949 
3 958 949 954 
3 959 957 950 
3 959 950 958 
3 960 953 952 
3 955 960 952 
3 960 961 953 
3 953 958 954 
3 961 958 953 
3 962 960 955 
3 955 956 963 
3 955 963 962 
3 964 963 956 
3 964 956 957 
3 965 964 957 
3 965 957 959 
3 961 959 958 
3 966 965 959 
3 966 959 961 
3 962 967 960 
3 967 961 960 
3 967 966 961 
3 968 967 962 
3 962 969 968 
3 962 963 969 
3 970 969 963 
3 970 963 964 
3 971 964 965 
3 971 970 964 
3 972 971 965 
3 972 965 966 
3 973 972 966 
3 973 966 967 
3 968 973 967 
3 974 973 968 
3 968 969 975 
3 968 975 974 
3 976 975 969 
3 976 969 970 
3 977 976 970 
3 977 970 971 
3 978 977 971 
3 978 971 972 
3 979 978 972 
3 979 972 973 
3 974 979 973 
3 980 979 974 
3 974 981 980 
3 974 975 981 
3 982 981 975 
3 982 975 976 
3 983 982 976 
3 983 976 977 
3 984 983 977 
3 984 977 978 
3 985 984 978 
3 985 978 979 
3 980 985 979 
3 986 985 980 
3 980 987 986 
3 987 980 981 
3 988 987 981 
3 988 981 982 
3 989 988 982 
3 989 982 983 
3 984 989 983 
3 990 991 984 
3 990 984 985 
3 984 991 989 
3 986 990 985 
3 992 990 986 
3 986 987 993 
3 986 993 992 
3 994 993 987 
3 994 987 988 
3 995 994 988 
3 995 988 989 
3 996 995 989 
3 996 989 991 
3 992 997 990 
3 997 991 990 
3 997 996 991 
3 998 997 992 
3 992 993 999 
3 992 999 998 
3 1000 993 994 
3 1000 999 993 
3 1001 1000 994 
3 1001 994 995 
3 1002 1001 995 
3 1002 995 996 
3 1003 996 997 
3 1003 1002 996 
3 998 1003 997 
3 1004 1003 998 
3 998 999 1005 
3 998 1005 1004 
3 1006 999 1000 
3 1006 1005 999 
3 1007 1006 1000 
3 1000 1001 1007 
3 1008 1001 1002 
3 1008 1007 1001 
3 1009 1008 1002 
3 1009 1002 1003 
3 1004 1009 1003 
3 1004 1005 1010 
3 1010 1009 1004 
3 1005 1011 1010 
3 1005 1006 1011 
3 1012 1013 1006 
3 1006 1007 1012 
3 1013 1011 1006 
3 1012 1007 1008 
3 1012 1008 1014 
3 1014 1008 1009 
3 1010 1014 1009 
3 1014 1010 1011 
3 1014 1011 1013 
3 1012 1014 1013 
3 1015 1016 1017 
3 1018 1019 1015 
3 1015 1020 1018 
3 1019 1021 1015 
3 1021 1016 1015 
3 1015 1017 1020 
3 1022 1023 1016 
3 1021 1022 1016 
3 1016 1023 1024 
3 1016 1024 1017 
3 1017 1025 1026 
3 1020 1017 1026 
3 1017 1024 1025 
3 1027 1028 1018 
3 1028 1019 1018 
3 1027 1018 1022 
3 1022 1018 1023 
3 1020 1023 1018 
3 1028 1029 1019 
3 1029 1021 1019 
3 1020 1030 1023 
3 1020 1026 1031 
3 1030 1020 1031 
3 1032 1022 1021 
3 1029 1032 1021 
3 1032 1027 1022 
3 1023 1030 1024 
3 1024 1030 1033 
3 1024 1033 1025 
3 1033 1031 1025 
3 1031 1026 1025 
3 1034 1028 1027 
3 1035 1034 1027 
3 1035 1027 1032 
3 1034 1036 1028 
3 1036 1029 1028 
3 1037 1032 1029 
3 1036 1037 1029 
3 1030 1031 1033 
3 1037 1035 1032 
3 1038 1039 1034 
3 1038 1034 1035 
3 1039 1036 1034 
3 1040 1038 1035 
3 1040 1035 1037 
3 1039 1041 1036 
3 1041 1037 1036 
3 1041 1040 1037 
3 1042 1043 1038 
3 1043 1039 1038 
3 1042 1038 1040 
3 1043 1044 1039 
3 1044 1041 1039 
3 1045 1042 1040 
3 1045 1040 1041 
3 1044 1045 1041 
3 1046 1047 1042 
3 1047 1043 1042 
3 1046 1042 1045 
3 1047 1048 1043 
3 1048 1044 1043 
3 1048 1049 1044 
3 1049 1045 1044 
3 1049 1046 1045 
3 1050 1047 1046 
3 1051 1050 1046 
3 1051 1046 1049 
3 1052 1048 1047 
3 1050 1052 1047 
3 1052 1053 1048 
3 1053 1049 1048 
3 1053 1051 1049 
3 1054 1052 1050 
3 1055 1054 1050 
3 1055 1050 1051 
3 1056 1051 1053 
3 1056 1055 1051 
3 1054 1057 1052 
3 1057 1053 1052 
3 1057 1056 1053 
3 1058 1059 1054 
3 1059 1057 1054 
3 1058 1054 1055 
3 1060 1058 1055 
3 1060 1055 1056 
3 1061 1056 1057 
3 1061 1060 1056 
3 1059 1061 1057 
3 1062 1063 1058 
3 1063 1059 1058 
3 1062 1058 1060 
3 1063 1064 1059 
3 1064 1061 1059 
3 1065 1062 1060 
3 1065 1060 1061 
3 1064 1065 1061 
3 1066 1062 1065 
3 1066 1067 1062 
3 1067 1063 1062 
3 1068 1064 1063 
3 1067 1068 1063 
3 1068 1069 1064 
3 1069 1065 1064 
3 1069 1066 1065 
3 1070 1066 1069 
3 1070 1071 1066 
3 1071 1067 1066 
3 1071 1072 1067 
3 1072 1068 1067 
3 1072 1073 1068 
3 1073 1069 1068 
3 1073 1070 1069 
3 1074 1075 1070 
3 1074 1070 1073 
3 1075 1071 1070 
3 1075 1076 1071 
3 1076 1072 1071 
3 1076 1077 1072 
3 1077 1073 1072 
3 1077 1074 1073 
3 1074 1077 1075 
3 1077 1076 1075 
3 1078 1079 1080 
3 1081 1078 1080 
3 1082 1078 1081 
3 1082 1083 1078 
3 1083 1079 1078 
3 1079 1084 1080 
3 1083 1085 1079 
3 1085 1084 1079 
3 1086 1080 1084 
3 1086 1087 1080 
3 1087 1081 1080 
3 1087 1082 1081 
3 1088 1082 1087 
3 1088 1089 1082 
3 1089 1083 1082 
3 1090 1085 1083 
3 1089 1090 1083 
3 1085 1086 1084 
3 1091 1086 1085 
3 1090 1091 1085 
3 1091 1092 1086 
3 1092 1087 1086 
3 1092 1088 1087 
3 1093 1088 1092 
3 1093 1094 1088 
3 1094 1089 1088 
3 1095 1090 1089 
3 1094 1095 1089 
3 1095 1096 1090 
3 1096 1091 1090 
3 1096 1097 1091 
3 1097 1092 1091 
3 1097 1093 1092 
3 1098 1093 1097 
3 1098 1099 1093 
3 1099 1094 1093 
3 1099 1100 1094 
3 1100 1095 1094 
3 1100 1101 1095 
3 1101 1096 1095 
3 1101 1102 1096 
3 1102 1097 1096 
3 1102 1098 1097 
3 1103 1098 1102 
3 1103 1104 1098 
3 1104 1099 1098 
3 1105 1100 1099 
3 1104 1105 1099 
3 1105 1106 1100 
3 1106 1101 1100 
3 1106 1107 1101 
3 1107 1102 1101 
3 1107 1103 1102 
3 1108 1104 1103 
3 1109 1108 1103 
3 1109 1103 1107 
3 1108 1110 1104 
3 1110 1105 1104 
3 1110 1111 1105 
3 1111 1106 1105 
3 1111 1112 1106 
3 1112 1107 1106 
3 1112 1109 1107 
3 1113 1110 1108 
3 1114 1113 1108 
3 1114 1108 1109 
3 1115 1114 1109 
3 1115 1109 1112 
3 1113 1116 1110 
3 1116 1111 1110 
3 1116 1117 1111 
3 1117 1112 1111 
3 1117 1115 1112 
3 1118 1113 1114 
3 1118 1119 1113 
3 1119 1116 1113 
3 1120 1118 1114 
3 1120 1114 1115 
3 1121 1120 1115 
3 1121 1115 1117 
3 1119 1122 1116 
3 1122 1117 1116 
3 1122 1121 1117 
3 1123 1119 1118 
3 1124 1123 1118 
3 1124 1118 1120 
3 1123 1125 1119 
3 1125 1122 1119 
3 1120 1121 1126 
3 1120 1126 1124 
3 1126 1121 1122 
3 1125 1126 1122 
3 1125 1123 1127 
3 1123 1124 1127 
3 1127 1124 1126 
3 1125 1127 1126 
3 1128 1129 1130 
3 1131 1129 1128 
3 1128 1130 1132 
3 1133 1131 1128 
3 1133 1128 1132 
3 1129 1131 1130 
3 1130 1134 1132 
3 1135 1130 1131 
3 1134 1130 1135 
3 1136 1131 1133 
3 1131 1136 1135 
3 1137 1132 1134 
3 1137 1133 1132 
3 1138 1136 1133 
3 1138 1133 1137 
3 1134 1135 1139 
3 1139 1137 1134 
3 1136 1140 1135 
3 1139 1135 1141 
3 1135 1140 1141 
3 1142 1136 1138 
3 1136 1142 1140 
3 1143 1138 1137 
3 1143 1137 1139 
3 1144 1142 1138 
3 1144 1138 1143 
3 1141 1143 1139 
3 1142 1145 1140 
3 1140 1145 1146 
3 1141 1140 1146 
3 1146 1147 1141 
3 1147 1143 1141 
3 1148 1142 1144 
3 1142 1148 1145 
3 1147 1144 1143 
3 1149 1148 1144 
3 1149 1144 1147 
3 1148 1150 1145 
3 1146 1145 1151 
3 1145 1150 1151 
3 1151 1152 1146 
3 1152 1147 1146 
3 1152 1149 1147 
3 1153 1148 1149 
3 1148 1153 1150 
3 1154 1153 1149 
3 1154 1149 1152 
3 1153 1155 1150 
3 1150 1155 1156 
3 1151 1150 1156 
3 1156 1157 1151 
3 1157 1152 1151 
3 1157 1154 1152 
3 1158 1153 1154 
3 1153 1158 1155 
3 1159 1158 1154 
3 1159 1154 1157 
3 1158 1160 1155 
3 1156 1155 1161 
3 1155 1160 1161 
3 1161 1162 1156 
3 1162 1157 1156 
3 1162 1159 1157 
3 1163 1158 1159 
3 1158 1163 1160 
3 1164 1163 1159 
3 1164 1159 1162 
3 1163 1165 1160 
3 1161 1160 1166 
3 1160 1165 1166 
3 1166 1167 1161 
3 1167 1162 1161 
3 1167 1164 1162 
3 1168 1163 1164 
3 1163 1168 1165 
3 1169 1168 1164 
3 1169 1164 1167 
3 1168 1170 1165 
3 1166 1165 1171 
3 1165 1170 1171 
3 1171 1172 1166 
3 1172 1167 1166 
3 1172 1169 1167 
3 1173 1168 1169 
3 1168 1173 1170 
3 1174 1173 1169 
3 1174 1169 1172 
3 1173 1175 1170 
3 1171 1170 1176 
3 1170 1175 1176 
3 1176 1177 1171 
3 1177 1172 1171 
3 1177 1174 1172 
3 1178 1173 1174 
3 1173 1178 1175 
3 1179 1178 1174 
3 1179 1174 1177 
3 1178 1180 1175 
3 1176 1175 1181 
3 1175 1180 1181 
3 1181 1182 1176 
3 1182 1177 1176 
3 1182 1179 1177 
3 1183 1178 1179 
3 1178 1183 1180 
3 1184 1183 1179 
3 1184 1179 1182 
3 1183 1185 1180 
3 1181 1180 1186 
3 1180 1185 1186 
3 1186 1187 1181 
3 1187 1182 1181 
3 1187 1184 1182 
3 1188 1183 1184 
3 1183 1188 1185 
3 1189 1188 1184 
3 1189 1184 1187 
3 1188 1190 1185 
3 1186 1185 1191 
3 1185 1190 1191 
3 1191 1192 1186 
3 1192 1187 1186 
3 1192 1189 1187 
3 1193 1188 1189 
3 1188 1193 1190 
3 1194 1193 1189 
3 1194 1189 1192 
3 1193 1195 1190 
3 1191 1190 1196 
3 1190 1195 1196 
3 1196 1197 1191 
3 1197 1192 1191 
3 1197 1194 1192 
3 1193 1198 1195 
3 1198 1193 1194 
3 1199 1198 1194 
3 1199 1194 1197 
3 1198 1200 1195 
3 1196 1195 1201 
3 1195 1200 1201 
3 1201 1202 1196 
3 1202 1197 1196 
3 1202 1199 1197 
3 1198 1203 1200 
3 1203 1198 1199 
3 1204 1203 1199 
3 1204 1199 1202 
3 1200 1205 1206 
3 1203 1205 1200 
3 1201 1200 1206 
3 1206 1207 1201 
3 1207 1202 1201 
3 1207 1204 1202 
3 1205 1203 1204 
3 1206 1205 1204 
3 1206 1204 1207 
3 1208 1209 1210 
3 1208 1211 1209 
3 1212 1211 1208 
3 1212 1208 1210 
3 1211 1213 1209 
3 1214 1209 1213 
3 1214 1215 1209 
3 1209 1215 1210 
3 1215 1216 1210 
3 1210 1216 1212 
3 1211 1212 1217 
3 1213 1211 1217 
3 1218 1212 1216 
3 1219 1217 1212 
3 1218 1219 1212 
3 1220 1214 1213 
3 1213 1217 1220 
3 1221 1214 1220 
3 1221 1222 1214 
3 1222 1215 1214 
3 1223 1216 1215 
3 1222 1223 1215 
3 1216 1223 1218 
3 1220 1217 1224 
3 1217 1219 1224 
3 1225 1218 1223 
3 1226 1219 1218 
3 1225 1226 1218 
3 1224 1219 1227 
3 1219 1226 1227 
3 1224 1221 1220 
3 1228 1221 1224 
3 1229 1222 1221 
3 1228 1229 1221 
3 1229 1230 1222 
3 1230 1223 1222 
3 1230 1225 1223 
3 1227 1228 1224 
3 1231 1225 1230 
3 1231 1232 1225 
3 1232 1226 1225 
3 1227 1226 1233 
3 1226 1232 1233 
3 1234 1228 1227 
3 1233 1234 1227 
3 1235 1229 1228 
3 1234 1235 1228 
3 1235 1236 1229 
3 1236 1230 1229 
3 1236 1231 1230 
3 1237 1231 1236 
3 1237 1238 1231 
3 1238 1232 1231 
3 1238 1239 1232 
3 1233 1232 1239 
3 1240 1234 1233 
3 1239 1240 1233 
3 1240 1241 1234 
3 1241 1235 1234 
3 1236 1235 1241 
3 1242 1236 1241 
3 1242 1237 1236 
3 1243 1237 1242 
3 1243 1244 1237 
3 1244 1238 1237 
3 1238 1244 1245 
3 1239 1238 1245 
3 1246 1240 1239 
3 1245 1246 1239 
3 1246 1247 1240 
3 1247 1241 1240 
3 1247 1248 1241 
3 1248 1242 1241 
3 1248 1243 1242 
3 1249 1243 1248 
3 1249 1250 1243 
3 1250 1244 1243 
3 1245 1244 1251 
3 1244 1250 1251 
3 1252 1246 1245 
3 1251 1252 1245 
3 1252 1253 1246 
3 1253 1247 1246 
3 1253 1254 1247 
3 1254 1248 1247 
3 1254 1249 1248 
3 1255 1249 1254 
3 1255 1256 1249 
3 1256 1250 1249 
3 1250 1256 1257 
3 1251 1250 1257 
3 1258 1252 1251 
3 1257 1258 1251 
3 1258 1259 1252 
3 1259 1253 1252 
3 1259 1260 1253 
3 1260 1254 1253 
3 1260 1255 1254 
3 1261 1255 1260 
3 1261 1262 1255 
3 1262 1256 1255 
3 1257 1256 1263 
3 1256 1262 1263 
3 1264 1258 1257 
3 1263 1264 1257 
3 1264 1265 1258 
3 1265 1259 1258 
3 1265 1266 1259 
3 1266 1260 1259 
3 1266 1261 1260 
3 1267 1261 1266 
3 1267 1268 1261 
3 1268 1262 1261 
3 1263 1262 1269 
3 1262 1268 1269 
3 1270 1264 1263 
3 1269 1270 1263 
3 1271 1265 1264 
3 1270 1271 1264 
3 1271 1272 1265 
3 1272 1266 1265 
3 1272 1267 1266 
3 1273 1267 1272 
3 1273 1274 1267 
3 1274 1268 1267 
3 1269 1268 1275 
3 1268 1274 1275 
3 1276 1270 1269 
3 1275 1276 1269 
3 1277 1271 1270 
3 1276 1277 1270 
3 1277 1278 1271 
3 1278 1272 1271 
3 1278 1273 1272 
3 1279 1273 1278 
3 1279 1280 1273 
3 1280 1274 1273 
3 1274 1280 1281 
3 1275 1274 1281 
3 1282 1276 1275 
3 1281 1282 1275 
3 1283 1277 1276 
3 1282 1283 1276 
3 1284 1278 1277 
3 1283 1284 1277 
3 1284 1279 1278 
3 1285 1279 1284 
3 1285 1286 1279 
3 1286 1280 1279 
3 1281 1280 1287 
3 1280 1286 1287 
3 1288 1282 1281 
3 1287 1288 1281 
3 1289 1283 1282 
3 1288 1289 1282 
3 1290 1284 1283 
3 1289 1290 1283 
3 1290 1285 1284 
3 1291 1285 1290 
3 1291 1292 1285 
3 1292 1286 1285 
3 1286 1292 1293 
3 1287 1286 1293 
3 1293 1294 1287 
3 1294 1288 1287 
3 1294 1295 1288 
3 1295 1289 1288 
3 1296 1290 1289 
3 1295 1296 1289 
3 1296 1291 1290 
3 1297 1298 1291 
3 1297 1291 1296 
3 1298 1292 1291 
3 1292 1298 1299 
3 1293 1292 1299 
3 1299 1300 1293 
3 1300 1294 1293 
3 1300 1301 1294 
3 1301 1295 1294 
3 1301 1302 1295 
3 1302 1296 1295 
3 1302 1297 1296 
3 1298 1297 1302 
3 1301 1298 1302 
3 1298 1301 1300 
3 1299 1298 1300 
3 1303 1304 1305 
3 1304 1303 1306 
3 1303 1307 1306 
3 1303 1305 1308 
3 1303 1308 1307 
3 1305 1304 1309 
3 1304 1310 1309 
3 1310 1304 1306 
3 1305 1309 1308 
3 1310 1306 1311 
3 1311 1306 1312 
3 1306 1307 1312 
3 1307 1313 1312 
3 1308 1313 1307 
3 1314 1313 1308 
3 1308 1309 1314 
3 1309 1310 1315 
3 1309 1315 1314 
3 1310 1311 1316 
3 1310 1316 1315 
3 1311 1312 1317 
3 1311 1317 1316 
3 1312 1318 1317 
3 1312 1313 1318 
3 1314 1319 1313 
3 1313 1319 1318 
3 1314 1315 1320 
3 1319 1314 1321 
3 1314 1320 1321 
3 1315 1316 1322 
3 1315 1322 1320 
3 1316 1317 1323 
3 1316 1323 1322 
3 1317 1318 1324 
3 1317 1324 1323 
3 1318 1325 1324 
3 1318 1319 1325 
3 1319 1321 1325 
3 1320 1322 1326 
3 1321 1320 1327 
3 1320 1326 1327 
3 1325 1321 1328 
3 1321 1327 1328 
3 1322 1329 1326 
3 1322 1323 1329 
3 1323 1324 1330 
3 1323 1330 1329 
3 1324 1331 1330 
3 1324 1325 1331 
3 1325 1328 1331 
3 1326 1329 1332 
3 1326 1332 1333 
3 1327 1326 1333 
3 1327 1333 1334 
3 1328 1327 1334 
3 1331 1328 1335 
3 1328 1334 1335 
3 1329 1336 1332 
3 1329 1330 1336 
3 1330 1337 1336 
3 1330 1331 1337 
3 1331 1335 1337 
3 1333 1332 1338 
3 1332 1336 1339 
3 1332 1339 1338 
3 1334 1333 1340 
3 1333 1338 1340 
3 1335 1334 1341 
3 1334 1340 1341 
3 1337 1335 1342 
3 1335 1341 1342 
3 1336 1337 1343 
3 1336 1343 1339 
3 1337 1342 1343 
3 1338 1339 1344 
3 1340 1338 1345 
3 1338 1344 1345 
3 1339 1343 1346 
3 1339 1346 1344 
3 1341 1340 1347 
3 1340 1345 1347 
3 1342 1341 1348 
3 1341 1347 1348 
3 1343 1342 1349 
3 1342 1348 1349 
3 1343 1349 1346 
3 1344 1346 1350 
3 1345 1344 1351 
3 1344 1350 1351 
3 1347 1345 1352 
3 1345 1351 1352 
3 1346 1349 1353 
3 1346 1353 1350 
3 1348 1347 1354 
3 1347 1352 1354 
3 1349 1348 1355 
3 1348 1354 1355 
3 1349 1355 1353 
3 1350 1353 1356 
3 1351 1350 1357 
3 1350 1356 1357 
3 1352 1351 1358 
3 1351 1357 1358 
3 1354 1352 1359 
3 1352 1358 1359 
3 1353 1360 1356 
3 1353 1355 1360 
3 1355 1354 1361 
3 1354 1359 1361 
3 1355 1361 1360 
3 1357 1356 1362 
3 1356 1360 1363 
3 1356 1363 1362 
3 1357 1362 1364 
3 1358 1357 1364 
3 1359 1358 1365 
3 1358 1364 1365 
3 1361 1359 1366 
3 1359 1365 1366 
3 1360 1367 1363 
3 1360 1361 1367 
3 1361 1366 1367 
3 1362 1363 1368 
3 1364 1362 1369 
3 1362 1368 1369 
3 1363 1367 1370 
3 1363 1370 1368 
3 1365 1364 1371 
3 1364 1369 1371 
3 1366 1365 1372 
3 1365 1371 1372 
3 1367 1366 1373 
3 1366 1372 1373 
3 1367 1373 1370 
3 1369 1368 1374 
3 1368 1375 1374 
3 1368 1370 1375 
3 1369 1374 1376 
3 1371 1369 1376 
3 1370 1373 1377 
3 1370 1377 1375 
3 1371 1376 1378 
3 1372 1371 1378 
3 1373 1372 1379 
3 1372 1378 1379 
3 1373 1379 1377 
3 1374 1375 1380 
3 1374 1380 1381 
3 1376 1374 1381 
3 1375 1382 1380 
3 1375 1377 1382 
3 1376 1381 1383 
3 1378 1376 1383 
3 1377 1384 1382 
3 1377 1379 1384 
3 1378 1383 1385 
3 1379 1378 1385 
3 1379 1385 1384 
3 1381 1380 1386 
3 1380 1387 1386 
3 1380 1382 1387 
3 1381 1386 1388 
3 1383 1381 1388 
3 1382 1389 1387 
3 1382 1384 1389 
3 1383 1388 1390 
3 1385 1383 1390 
3 1384 1391 1389 
3 1384 1385 1391 
3 1385 1390 1391 
3 1386 1392 1393 
3 1388 1386 1393 
3 1386 1387 1392 
3 1387 1394 1392 
3 1395 1394 1387 
3 1387 1389 1395 
3 1388 1393 1396 
3 1390 1388 1396 
3 1389 1391 1395 
3 1390 1396 1397 
3 1391 1390 1397 
3 1391 1397 1395 
3 1393 1392 1394 
3 1396 1393 1394 
3 1396 1394 1397 
3 1394 1395 1397 
3 1398 1399 1400 
3 1401 1398 1400 
