NORM_ASCII
2576 5190
  -0.1594504   -0.0009966   -0.0153064   -0.2754345    0.5966504    0.7537534
  -0.1488151   -0.0007775   -0.0251514    0.4973411   -0.1008753    0.8616705
  -0.1401021   -0.0056758   -0.0285857   -0.0595916   -0.6759440    0.7345397
  -0.1438215   -0.0057448   -0.0281123    0.2672750   -0.1814742    0.9463779
  -0.1448369    0.0007498   -0.0249419   -0.2503243   -0.5545689    0.7935938
  -0.1426147    0.0000998   -0.0236017   -0.6026309   -0.6592209    0.4497375
  -0.1448942    0.0055835   -0.0189816   -0.8158712   -0.3272116    0.4767459
  -0.1408101    0.0083875   -0.0147599   -0.6780044    0.2953141    0.6731268
  -0.1387777    0.0098517   -0.0147776   -0.6051353    0.7704250    0.2006407
  -0.1305173    0.0186426   -0.0173758   -0.4096589    0.6109619    0.6774253
  -0.1445798    0.0192900   -0.0232774   -0.5528983    0.4744642    0.6849724
  -0.1394067    0.0193801   -0.0214895   -0.2041647    0.6557240    0.7268719
  -0.1445215    0.0206641   -0.0246904   -0.5459782    0.7117337    0.4419762
  -0.1425503    0.0215094   -0.0250008   -0.3814036    0.9071964    0.1775555
  -0.1453109   -0.0151835   -0.0419322   -0.2238111   -0.0107894   -0.9745728
  -0.1480789   -0.0150328   -0.0415150   -0.1534837   -0.0999383   -0.9830845
  -0.1501249   -0.0163739   -0.0412331   -0.0213277   -0.1944995   -0.9806707
  -0.1339076   -0.0174908   -0.0419889    0.1204381   -0.9026735   -0.4131285
  -0.1415210   -0.0206052   -0.0398990    0.3727887   -0.9116655   -0.1729006
  -0.1512713   -0.0268738   -0.0410014    0.3406110   -0.8978169   -0.2791218
  -0.1559618   -0.0284580   -0.0394327    0.0983526   -0.6716880   -0.7342765
  -0.1707573   -0.0167467   -0.0284065   -0.9940115    0.0469940   -0.0986542
  -0.1642596   -0.0298658   -0.0365052   -0.4996633   -0.2481894   -0.8299028
  -0.1702687   -0.0187397   -0.0300306   -0.9435469   -0.0900596   -0.3187608
  -0.1668523   -0.0296226   -0.0337207   -0.7547598   -0.0471447   -0.6543050
  -0.1677797   -0.0279861   -0.0325734   -0.7196260   -0.0857256   -0.6890498
  -0.1689943   -0.0264589   -0.0319183   -0.6926042   -0.1652226   -0.7021402
  -0.1706155   -0.0258942   -0.0287895   -0.9524841    0.0865065   -0.2920455
  -0.1702586   -0.0269461   -0.0303947   -0.8286163    0.1103768   -0.5488278
  -0.1211430   -0.0116832   -0.0472125   -0.1342482   -0.5456210   -0.8272092
  -0.1197048   -0.0143815   -0.0449848    0.1989039   -0.9797238   -0.0240530
  -0.1096295    0.0258504   -0.0525445    0.5270487    0.2191739   -0.8210862
  -0.1091729    0.0270182   -0.0498584    0.8232012    0.5083465   -0.2528313
  -0.1090793    0.0122799   -0.0519953   -0.0368065   -0.1487103   -0.9881956
  -0.1080808    0.0156621   -0.0523151    0.0965066   -0.0613914   -0.9934372
  -0.1058688    0.0073592   -0.0505391    0.6388133   -0.2016463   -0.7424664
  -0.1056270    0.0148774   -0.0511574    0.8859241   -0.0033916   -0.4638179
  -0.1113744   -0.0042257   -0.0460077    0.9073523   -0.3145077    0.2789205
  -0.1081218    0.0009099   -0.0493685    0.8198383   -0.5131011   -0.2541506
  -0.1119170    0.0004919   -0.0400914    0.8981192   -0.2980122    0.3233737
  -0.1090683    0.0006864   -0.0474208    0.8503155   -0.3839753    0.3598979
  -0.1159810   -0.0131087   -0.0457449    0.3490927   -0.9327387   -0.0901822
  -0.1179770   -0.0138188   -0.0453214    0.4018226   -0.9006616    0.1653704
  -0.1137095   -0.0101006   -0.0451414    0.6592004   -0.4945250    0.5664803
  -0.1132503   -0.0067010   -0.0433897    0.8327847   -0.3784950    0.4039940
  -0.1067169    0.0032605   -0.0496693    0.8864593   -0.4351858   -0.1574903
  -0.1429187    0.0212714   -0.0241462   -0.2912639    0.8809573    0.3729337
  -0.1384497    0.0223721   -0.0258549   -0.1406023    0.7720496    0.6198149
  -0.1177149    0.0483596   -0.0410169   -0.1418486    0.9826720   -0.1193091
  -0.1138254    0.0478071   -0.0408079    0.5229711    0.7117835   -0.4688981
  -0.1205597    0.0454549   -0.0361868   -0.3862305    0.8220784    0.4183457
  -0.1173650    0.0483382   -0.0393904   -0.2706317    0.9550789    0.1207593
  -0.1223575    0.0441433   -0.0354813   -0.7049840    0.6844678    0.1857454
  -0.1121850    0.0430436   -0.0419995    0.7597589    0.1946134   -0.6203967
  -0.1108925    0.0393847   -0.0400076    0.7358710   -0.1213876   -0.6661524
  -0.1091572    0.0375580   -0.0378309    0.7702063    0.0360278   -0.6367765
  -0.1090488    0.0347703   -0.0383063    0.8026621    0.1875927   -0.5661647
  -0.1072498    0.0273919   -0.0393480    0.9026938    0.3311198   -0.2747792
  -0.1124163    0.0410368   -0.0420799    0.7367362   -0.1118383   -0.6668673
  -0.1113923    0.0304471   -0.0480523    0.7858383    0.5959629   -0.1651859
  -0.1248919    0.0408579   -0.0323434   -0.5792027    0.8003551    0.1547771
  -0.1216107    0.0376386   -0.0274518   -0.4097501    0.4068004    0.8164670
  -0.1240909    0.0403847   -0.0298132   -0.3155943    0.7123106    0.6269081
  -0.1181112    0.0266681   -0.0191332   -0.6852746    0.3752252    0.6241833
  -0.1289025    0.0236647   -0.0261294    0.1583802    0.5459532    0.8227094
  -0.1233732    0.0213918   -0.0262446    0.3884773    0.2073776    0.8978196
  -0.1212951    0.0230283   -0.0255742   -0.4203149   -0.6369560    0.6462372
  -0.1130072    0.0169358   -0.0296609   -0.1611078   -0.8682232    0.4692897
  -0.1154064    0.0155230   -0.0304496    0.1702020   -0.4511204    0.8760831
  -0.1171293    0.0144194   -0.0304020    0.6182412    0.0564516    0.7839586
  -0.1199973    0.0233143   -0.0239420   -0.5977266   -0.7466893    0.2918528
  -0.1195446    0.0247702   -0.0207251   -0.8607987   -0.4093811    0.3023784
  -0.1301503    0.0227625   -0.0252034    0.0303933    0.6664810    0.7449022
  -0.1335234    0.0222206   -0.0246309    0.0142627    0.8539929    0.5200891
  -0.1364830    0.0222597   -0.0255386   -0.1098878    0.8237404    0.5562162
  -0.1699133   -0.0151250   -0.0207843   -0.4650772    0.6477560    0.6034197
  -0.1684195   -0.0140041   -0.0217537    0.2533015    0.4109199    0.8757758
  -0.1705731   -0.0188475   -0.0197680   -0.9700786    0.2401873   -0.0354620
  -0.1646896   -0.0171001   -0.0238877    0.6583133    0.1535253    0.7369217
  -0.1638405   -0.0148442   -0.0239258    0.6239893   -0.1438917    0.7680706
  -0.1631656   -0.0132846   -0.0240567    0.2978074   -0.5724814    0.7639213
  -0.1581673   -0.0138307   -0.0235557   -0.4090510   -0.9073104    0.0972890
  -0.1617649   -0.0124527   -0.0124397   -0.9937109    0.0845199   -0.0734511
  -0.1589707   -0.0086288   -0.0091229   -0.8177508    0.5080507    0.2704961
  -0.1590851   -0.0052168   -0.0117409   -0.3247963    0.5683569    0.7559615
  -0.1568892   -0.0032766   -0.0125037   -0.2836298    0.6439066    0.7105902
  -0.1582916   -0.0023973   -0.0138600   -0.2621638    0.6050989    0.7517482
  -0.1576759   -0.0069921   -0.0098199   -0.6578194    0.6624274    0.3584182
  -0.1561544   -0.0005691   -0.0145114   -0.1559571    0.5820027    0.7980916
  -0.1500727   -0.0034107   -0.0168205    0.6043302    0.6993203   -0.3817541
  -0.1521759   -0.0003744   -0.0146518    0.3262385    0.9246731    0.1963369
  -0.1456927   -0.0091606   -0.0180909    0.6622504    0.3879082   -0.6410551
  -0.1472358   -0.0099509   -0.0220869    0.9363126    0.3488057   -0.0406603
  -0.1472554   -0.0076913   -0.0249357    0.8223924    0.3888555    0.4152857
  -0.1465899   -0.0058840   -0.0271650    0.6245615    0.0460847    0.7796148
  -0.1352220   -0.0068262   -0.0278573   -0.2592330   -0.9245110    0.2794238
  -0.1381356   -0.0049846   -0.0254164   -0.5081143   -0.8148132    0.2791045
  -0.1348435   -0.0097359   -0.0330449    0.0152470   -0.7703113    0.6374856
  -0.1361564   -0.0108724   -0.0341588    0.2323915   -0.6760430    0.6992568
  -0.1415867   -0.0168368   -0.0351475    0.6876195   -0.4291129    0.5856975
  -0.1447441   -0.0108210   -0.0285001    0.7009288   -0.1302917    0.7012296
  -0.1359387   -0.0075881   -0.0303363   -0.1282865   -0.8686367    0.4785529
  -0.1451925   -0.0085568   -0.0280673    0.7595920    0.1345568    0.6363289
  -0.1408370   -0.0008035   -0.0212386   -0.8051394   -0.5829632   -0.1091079
  -0.1421018   -0.0006191   -0.0190030   -0.8834988   -0.3798212   -0.2741636
  -0.1374688    0.0049831   -0.0127088   -0.7606817    0.6090588    0.2245236
  -0.1414104   -0.0014847   -0.0168546   -0.9136923    0.1593643   -0.3738574
  -0.1391339    0.0097479   -0.0138409   -0.7035546    0.5618398    0.4351401
  -0.1312487    0.0171972   -0.0140527   -0.5883186    0.7673187   -0.2551532
  -0.1289388    0.0177521   -0.0153423   -0.6250351    0.7767276    0.0776229
  -0.1288462    0.0201934   -0.0175544   -0.0763470    0.9044802    0.4196269
  -0.1308118    0.0209650   -0.0195460    0.0443080    0.9543589    0.2953573
  -0.1440921    0.0204108   -0.0237512   -0.4667443    0.7171934    0.5174778
  -0.1345537   -0.0121930   -0.0358656    0.1206291   -0.7758046    0.6193350
  -0.1487349   -0.0187468   -0.0334079    0.1055409   -0.8729690    0.4762209
  -0.1465250   -0.0162792   -0.0261872    0.5782004   -0.7108671    0.4004402
  -0.1563512   -0.0273402   -0.0344916    0.7452406   -0.5948258    0.3013283
  -0.1568189   -0.0207969   -0.0310228    0.7609672   -0.2037520    0.6159659
  -0.1511062   -0.0197079   -0.0340089    0.2233552   -0.7061137    0.6719494
  -0.1533229   -0.0208751   -0.0340659    0.4716490   -0.5162816    0.7148430
  -0.1606239   -0.0311922   -0.0359766    0.3258060   -0.7961870   -0.5098398
  -0.1600142   -0.0308730   -0.0341493    0.6547560   -0.7555697    0.0202237
  -0.1711158   -0.0260531   -0.0260240   -0.9771865    0.1264941   -0.1706042
  -0.1674854   -0.0322396   -0.0329232   -0.7170331   -0.0466187   -0.6954784
  -0.1666768   -0.0341711   -0.0335756   -0.3570650   -0.3649640   -0.8598290
  -0.1701455   -0.0306885   -0.0302862   -0.6392530    0.0112502   -0.7689142
  -0.1692217   -0.0284417   -0.0311678   -0.6826534   -0.1013949   -0.7236736
  -0.1710659   -0.0272619   -0.0276718   -0.9083678    0.3617992   -0.2096886
  -0.1742616   -0.0304600   -0.0247140   -0.7941042    0.5533573   -0.2513847
  -0.1724760   -0.0310486   -0.0287027   -0.6997711    0.2430171   -0.6717612
  -0.1295451   -0.0116049   -0.0357503    0.0763089   -0.8768978    0.4745810
  -0.1182598   -0.0126091   -0.0433365    0.4454811   -0.7189901    0.5334790
  -0.1186727   -0.0109097   -0.0408548    0.6061453   -0.6303175    0.4850647
  -0.1205439   -0.0116476   -0.0397797    0.4860857   -0.7231274    0.4907213
  -0.1226050   -0.0121165   -0.0387473    0.2759259   -0.8316473    0.4819001
  -0.1065022    0.0212974   -0.0486808    0.9558414    0.2591937   -0.1385127
  -0.1076848    0.0241392   -0.0478790    0.9047473    0.3943570   -0.1609809
  -0.1059915    0.0050746   -0.0496008    0.9415129   -0.3316234    0.0598277
  -0.1053851    0.0071260   -0.0495532    0.9842309   -0.1735561    0.0341721
  -0.1059436    0.0181739   -0.0487260    0.9904455    0.1376144   -0.0089432
  -0.1056941    0.0155496   -0.0482891    0.9981366    0.0032308    0.0609335
  -0.1064442    0.0135268   -0.0426108    0.9906792   -0.0944151    0.0981858
  -0.1066005    0.0103794   -0.0450107    0.9627178   -0.1537420    0.2225709
  -0.1110495    0.0032765   -0.0400729    0.8806065   -0.3137050    0.3551357
  -0.1128804    0.0010659   -0.0368102    0.9174968   -0.2555694    0.3047686
  -0.1141324   -0.0005177   -0.0345461    0.8884428   -0.3926478    0.2376913
  -0.1118682    0.0032491   -0.0380644    0.8938902   -0.2992959    0.3337400
  -0.1084081    0.0033660   -0.0463462    0.8459260   -0.3436395    0.4078248
  -0.1130238    0.0474281   -0.0370559    0.3882610    0.9083315    0.1555224
  -0.1061845    0.0382185   -0.0330690    0.8467175    0.4323843   -0.3100214
  -0.1163675    0.0430228   -0.0314809   -0.1716144    0.8208397    0.5447666
  -0.1169789    0.0445440   -0.0338966   -0.1704138    0.7757767    0.6075604
  -0.1164593    0.0474880   -0.0370108   -0.1574041    0.7689657    0.6196093
  -0.1169783    0.0481967   -0.0381391   -0.1178233    0.9133381    0.3897834
  -0.1088319    0.0394889   -0.0373174    0.8174357    0.0491462   -0.5739195
  -0.1081663    0.0359122   -0.0366484    0.8187495    0.0767919   -0.5689924
  -0.1072023    0.0345069   -0.0354552    0.7944865    0.1053248   -0.5980784
  -0.1057339    0.0323036   -0.0338920    0.7826081    0.0967155   -0.6149559
  -0.1049904    0.0211785   -0.0332395    0.9440857   -0.0768257   -0.3206243
  -0.1065852    0.0222719   -0.0413023    0.9904770    0.1167438   -0.0729813
  -0.1198422    0.0389056   -0.0272015   -0.3034640    0.5540884    0.7751746
  -0.1176153    0.0389485   -0.0267270   -0.2041019    0.7138376    0.6699091
  -0.1188933    0.0221752   -0.0167397   -0.9681506    0.1210560   -0.2191569
  -0.1180924    0.0239577   -0.0151854   -0.7461391    0.5904067    0.3077277
  -0.1134958    0.0299280   -0.0183632   -0.5413385    0.6233493    0.5642590
  -0.1282613    0.0209132   -0.0236332    0.2217745    0.8526610    0.4730595
  -0.1242250    0.0197427   -0.0247701    0.6159113    0.7200662    0.3196216
  -0.1237173    0.0203043   -0.0256033    0.5582092    0.4240890    0.7131277
  -0.1106266    0.0149019   -0.0318803    0.2038644   -0.5943575    0.7779321
  -0.1075857    0.0169340   -0.0247330   -0.0547048   -0.9726480   -0.2257505
  -0.1103819    0.0171496   -0.0240630   -0.2751710   -0.9372641   -0.2140489
  -0.1053105    0.0172834   -0.0258916    0.2075121   -0.9767136   -0.0544915
  -0.1080704    0.0153843   -0.0317541    0.2413733   -0.8505640    0.4672043
  -0.1149097    0.0197367   -0.0241118   -0.5345618   -0.8311209   -0.1532377
  -0.1120259    0.0072273   -0.0350319    0.7473279   -0.1894311    0.6368806
  -0.1172629    0.0122889   -0.0291050    0.8054102    0.3565967    0.4734483
  -0.1207087    0.0155814   -0.0263194    0.7708573    0.4177958    0.4808593
  -0.1160229    0.0197624   -0.0224598   -0.6663907   -0.7238397   -0.1788280
  -0.1152924    0.0190360   -0.0195519   -0.7813503   -0.4320767   -0.4503348
  -0.1307265    0.0212751   -0.0222278    0.2625089    0.9533663    0.1489355
  -0.1685599   -0.0152835   -0.0205583    0.4486840    0.7085964    0.5445859
  -0.1688662   -0.0160025   -0.0191524    0.1500848    0.9542525    0.2586052
  -0.1701742   -0.0175685   -0.0185309   -0.8304561    0.5260283    0.1834035
  -0.1645016   -0.0193290   -0.0220166    0.7226943    0.5346868    0.4379760
  -0.1718139   -0.0261424   -0.0217905   -0.9244811    0.3465596   -0.1588434
  -0.1718584   -0.0253750   -0.0202197   -0.9086990    0.3437561   -0.2368498
  -0.1705513   -0.0183184   -0.0168564   -0.8451917    0.5300946   -0.0681965
  -0.1713453   -0.0193426   -0.0155530   -0.8511373    0.4344716   -0.2946178
  -0.1718630   -0.0271021   -0.0241295   -0.8936567    0.4100468   -0.1823167
  -0.1605817   -0.0206170   -0.0273485    0.7929232    0.0999432    0.6010692
  -0.1602461   -0.0251198   -0.0221729    0.9132686    0.3804185    0.1456783
  -0.1612107   -0.0175919   -0.0268959    0.6438263   -0.1076155    0.7575663
  -0.1545835   -0.0170936   -0.0297591    0.1648536   -0.7468292    0.6442588
  -0.1505254   -0.0174166   -0.0309024   -0.1261232   -0.9114399    0.3916252
  -0.1587800   -0.0172172   -0.0285339    0.4869327   -0.3999875    0.7764705
  -0.1512373   -0.0168151   -0.0180016    0.2190572   -0.9539128   -0.2050957
  -0.1488808   -0.0165836   -0.0235644    0.1863223   -0.9479500    0.2582148
  -0.1585362   -0.0175447   -0.0162434   -0.2283262   -0.3517224   -0.9078317
  -0.1631178   -0.0124469   -0.0078391   -0.6044481    0.7918663   -0.0871222
  -0.1639143   -0.0132649   -0.0101201   -0.4141552    0.8853423   -0.2112923
  -0.1559836   -0.0028243    0.0002772   -0.7697685    0.6382748   -0.0078641
  -0.1656069   -0.0145428    0.0043554   -0.7557301    0.6541038   -0.0319415
  -0.1555032   -0.0043957   -0.0109747   -0.5874127    0.7332285    0.3425235
  -0.1518871   -0.0008831   -0.0128173   -0.2935611    0.9325849   -0.2100173
  -0.1545441   -0.0012527   -0.0135500   -0.2072649    0.7478738    0.6306552
  -0.1554130   -0.0030333   -0.0051566   -0.7418879    0.6598113   -0.1193794
  -0.1478738   -0.0049515   -0.0160790    0.4186753    0.6466644   -0.6376018
  -0.1438040   -0.0092368   -0.0175909    0.0894907    0.0862501   -0.9922461
  -0.1424131   -0.0110469   -0.0166530    0.1905265   -0.4660520   -0.8639995
  -0.1444722   -0.0114041   -0.0172527    0.7639246   -0.2464320   -0.5963979
  -0.1470309   -0.0122986   -0.0218796    0.9894015   -0.1106145    0.0940692
  -0.1268446   -0.0097108   -0.0330516    0.0670687   -0.9309087    0.3590416
  -0.1340919   -0.0066486   -0.0248725   -0.3657971   -0.9295416    0.0463143
  -0.1368285   -0.0053333   -0.0228594   -0.5712013   -0.8057047   -0.1567450
  -0.1324936   -0.0109757   -0.0347563    0.0436801   -0.7805072    0.6236189
  -0.1452614   -0.0133660   -0.0276082    0.9049435   -0.0996110    0.4137087
  -0.1457883   -0.0154912   -0.0267729    0.8522782   -0.2238161    0.4727877
  -0.1383237   -0.0054539   -0.0209872   -0.5592258   -0.6051281   -0.5666450
  -0.1401069   -0.0064090   -0.0190906   -0.5413883   -0.3369941   -0.7702815
  -0.1315529    0.0120818   -0.0095063   -0.7776635    0.5088279    0.3692338
  -0.1319889    0.0118980   -0.0044646   -0.7101834    0.6981197   -0.0909312
  -0.1339916    0.0098559   -0.0042242   -0.6566762    0.7387035   -0.1519655
  -0.1414871    0.0024251   -0.0122489   -0.4045269    0.9005156   -0.1594664
  -0.1384406    0.0048117   -0.0107660   -0.5443927    0.8099913   -0.2180610
  -0.1363485    0.0080637   -0.0042855   -0.5713575    0.7986730   -0.1888706
  -0.1447826    0.0006359   -0.0140322   -0.3558957    0.7727564   -0.5255338
  -0.1446839   -0.0034683   -0.0164692   -0.3799539    0.2481254   -0.8911054
  -0.1310548    0.0172910   -0.0127607   -0.5946816    0.7225620    0.3525025
  -0.1291898    0.0183903   -0.0140040   -0.4424964    0.8965891   -0.0180270
  -0.1272894    0.0193555   -0.0155198   -0.2414115    0.9560862    0.1661915
  -0.1257088    0.0188597   -0.0158246    0.3163995    0.9478575   -0.0381781
  -0.1264951    0.0192509   -0.0178344    0.4060610    0.9138289    0.0055893
  -0.1265915    0.0194068   -0.0193852    0.3832280    0.9123320    0.1441756
  -0.1476432   -0.0157364   -0.0236091    0.7988690   -0.4375177    0.4127792
  -0.1576105   -0.0278708   -0.0319933    0.9180057   -0.2942872    0.2658206
  -0.1578022   -0.0287425   -0.0335792    0.7272851   -0.6815206    0.0811544
  -0.1585953   -0.0191454   -0.0290177    0.6505788   -0.0918986    0.7538580
  -0.1577948   -0.0268582   -0.0307133    0.9201088   -0.0258291    0.3908103
  -0.1622600   -0.0330371   -0.0330537    0.7514418   -0.6552762    0.0771256
  -0.1635256   -0.0345814   -0.0337435    0.5746314   -0.6882339   -0.4428689
  -0.1684506   -0.0345392   -0.0317934   -0.6022341   -0.1138002   -0.7901668
  -0.1655755   -0.0383283   -0.0315463    0.8459285   -0.4933726   -0.2024560
  -0.1665733   -0.0424842   -0.0295503    0.4650899   -0.2987482   -0.8333312
  -0.1707515   -0.0342491   -0.0300671   -0.5434176    0.0255437   -0.8390738
  -0.1731774   -0.0345070   -0.0286848   -0.5657774    0.0196409   -0.8243240
  -0.1764969   -0.0331154   -0.0235480   -0.8760593    0.4129546   -0.2489753
  -0.1758627   -0.0313279   -0.0203058   -0.8918524    0.4482917    0.0602808
  -0.1742253   -0.0318279   -0.0266435   -0.7594931    0.4684690   -0.4513392
  -0.1748145   -0.0303351   -0.0216413   -0.7794441    0.6189659   -0.0966861
  -0.1728894   -0.0273634   -0.0204169   -0.8304461    0.5223557   -0.1936588
  -0.1741181   -0.0334423   -0.0279865   -0.6880467    0.2095517   -0.6947516
  -0.1269608   -0.0116017   -0.0362909    0.1410341   -0.8780641    0.4572886
  -0.1165604   -0.0051166   -0.0346651    0.5875424   -0.7485272    0.3074101
  -0.1243478   -0.0108085   -0.0359673    0.3034272   -0.7756807    0.5533999
  -0.1062888    0.0192563   -0.0436457    0.9966230    0.0748417    0.0337833
  -0.1075006    0.0066532   -0.0456822    0.8748455   -0.3195910    0.3640151
  -0.1069639    0.0139542   -0.0390091    0.9386698   -0.2792722    0.2022522
  -0.1062926    0.0194011   -0.0407027    0.9976270   -0.0496994   -0.0476482
  -0.1137277    0.0012938   -0.0338750    0.9329777   -0.1898038    0.3058222
  -0.1128153    0.0034646   -0.0352284    0.8812007   -0.2487987    0.4019758
  -0.1164904   -0.0038249   -0.0286171    0.8014106   -0.5890433    0.1037739
  -0.1146948   -0.0008920   -0.0316438    0.9790756   -0.1932053    0.0638964
  -0.1105006    0.0438855   -0.0334662    0.4482640    0.8196919    0.3566013
  -0.1139090    0.0471754   -0.0363225    0.0841159    0.8151003    0.5731805
  -0.1043397    0.0339962   -0.0323724    0.7498580    0.1421521   -0.6461468
  -0.1012782    0.0334893   -0.0286972    0.7620022    0.5156277   -0.3917662
  -0.1047422    0.0368775   -0.0217239    0.5378920    0.8321844    0.1346897
  -0.1064978    0.0362077   -0.0342900    0.8019045    0.1312111   -0.5828660
  -0.1133056    0.0434518   -0.0314649   -0.0489464    0.8367950    0.5453241
  -0.1144742    0.0450528   -0.0337941   -0.0761765    0.7750606    0.6272784
  -0.1022649    0.0314035   -0.0304985    0.6848638    0.1878264   -0.7040475
  -0.0996453    0.0279818   -0.0291741    0.5445387   -0.2043235   -0.8134676
  -0.1030080    0.0230392   -0.0307670    0.7525686   -0.2474319   -0.6102606
  -0.1039219    0.0205558   -0.0302631    0.8136625   -0.3983925   -0.4233636
  -0.1052972    0.0193624   -0.0327713    0.9348802   -0.3329474   -0.1230655
  -0.1152369    0.0372424   -0.0246901   -0.2659087    0.5839876    0.7669753
  -0.1135362    0.0385578   -0.0248307   -0.3086907    0.6097500    0.7300103
  -0.1103394    0.0417350   -0.0270947   -0.0452270    0.8314861    0.5537015
  -0.1207380    0.0199801   -0.0128453   -0.5732226    0.7160252   -0.3984015
  -0.1184729    0.0170579   -0.0176854   -0.6210007    0.1237660   -0.7739768
  -0.1181263    0.0216805   -0.0119104   -0.4757692    0.8780182    0.0522280
  -0.1108838    0.0367509   -0.0221078   -0.2962396    0.6457760    0.7037155
  -0.1081473    0.0348376   -0.0191628   -0.5691874    0.7600747    0.3135477
  -0.1100319    0.0337232   -0.0158661   -0.6840528    0.7114172    0.1611131
  -0.1091861    0.0293328   -0.0106868   -0.7697589    0.5886900    0.2468102
  -0.1151118    0.0229853   -0.0109331   -0.5171412    0.8534540    0.0646633
  -0.1122952    0.0258052   -0.0108714   -0.7101399    0.6988912    0.0851611
  -0.1198316    0.0148779   -0.0228782    0.7214455    0.6645151   -0.1947719
  -0.1206878    0.0147870   -0.0250831    0.7962360    0.6030001   -0.0489806
  -0.1238635    0.0179469   -0.0192873    0.5463713    0.8274597    0.1295714
  -0.1200996    0.0150421   -0.0204435    0.6429848    0.7656507   -0.0186978
  -0.1087873    0.0138674   -0.0334204    0.5508489   -0.6296504    0.5478192
  -0.1063301    0.0152482   -0.0214877    0.0082129   -0.8692049   -0.4943838
  -0.1111820    0.0165393   -0.0224701   -0.3146920   -0.7655892   -0.5611079
  -0.1039224    0.0180615   -0.0263179    0.5205428   -0.7937173   -0.3147191
  -0.1072681    0.0155607   -0.0330393    0.7285017   -0.6792505    0.0889048
  -0.1150627    0.0090302   -0.0304143    0.8332563    0.3474562    0.4300676
  -0.1158903    0.0073254   -0.0277537    0.9779989    0.1731268    0.1163843
  -0.1069750    0.0147107   -0.0352981    0.8135156   -0.5168761    0.2665171
  -0.1174070    0.0104241   -0.0271370    0.8529342    0.4832248    0.1974767
  -0.1118114    0.0152736   -0.0211817   -0.3070342   -0.3945391   -0.8660652
  -0.1646106   -0.0199394   -0.0204047    0.7016091    0.7100383   -0.0599194
  -0.1690806   -0.0164554   -0.0172168   -0.4321457    0.8937558    0.1202110
  -0.1652884   -0.0182520   -0.0183732    0.4900535    0.7790275   -0.3911058
  -0.1675285   -0.0168300   -0.0173821    0.2507556    0.9667550   -0.0500644
  -0.1728885   -0.0266462   -0.0191362   -0.8290987    0.4222124   -0.3665133
  -0.1697514   -0.0167795   -0.0155050   -0.4795404    0.8088231   -0.3403618
  -0.1717337   -0.0154770   -0.0104109   -0.5932183    0.7906766   -0.1514019
  -0.1765752   -0.0219940   -0.0087882   -0.8845763    0.4498582    0.1230951
  -0.1582935   -0.0270839   -0.0289133    0.9744006    0.0831708    0.2088688
  -0.1591055   -0.0266020   -0.0253819    0.9713275    0.0353889    0.2350969
  -0.1618954   -0.0201063   -0.0173293    0.5680583    0.4991037   -0.6543740
  -0.1594951   -0.0273762   -0.0179754    0.9831390   -0.0500245   -0.1758842
  -0.1594194   -0.0285191   -0.0249743    0.9770618   -0.1494164    0.1517401
  -0.1595948   -0.0278716   -0.0210945    0.9909054   -0.1315973    0.0280826
  -0.1552204   -0.0180739   -0.0159206    0.1839061   -0.7592574   -0.6242650
  -0.1524788   -0.0176294   -0.0148769    0.5267882   -0.8227894   -0.2133349
  -0.1476197   -0.0142955   -0.0216118    0.7290473   -0.6844349    0.0062456
  -0.1575084   -0.0203559   -0.0147487    0.3509466   -0.4299926   -0.8318310
  -0.1604422   -0.0191569   -0.0161060    0.3253347    0.0471165   -0.9444244
  -0.1659424   -0.0154632   -0.0157369   -0.0915463    0.6788188   -0.7285769
  -0.1673404   -0.0153878   -0.0079504   -0.5605834    0.7439985    0.3636103
  -0.1690449   -0.0147444   -0.0094026   -0.3732115    0.8146372    0.4439362
  -0.1527051    0.0004795    0.0002778   -0.5857134    0.8105182    0.0000958
  -0.1554162   -0.0030395    0.0057107   -0.7377698    0.6634872    0.1244204
  -0.1589707   -0.0086288    0.0096768   -0.7637282    0.5545061   -0.3305179
  -0.1688994   -0.0182320    0.0071199   -0.6301559    0.6096337   -0.4808849
  -0.1736806   -0.0264403    0.0018040   -0.7933894    0.5468461   -0.2673812
  -0.1687045   -0.0179221   -0.0067486   -0.6966502    0.5922773    0.4048283
  -0.1673618   -0.0154219    0.0084843   -0.5620088    0.7476379   -0.3538130
  -0.1522678    0.0000316   -0.0055883   -0.6683029    0.7334627   -0.1241116
  -0.1495378    0.0018742   -0.0072510   -0.4451674    0.8816743   -0.1564491
  -0.1455383    0.0034145   -0.0051785   -0.2744843    0.9295335   -0.2462230
  -0.1457460   -0.0052948   -0.0162233   -0.2245283    0.2514893   -0.9414564
  -0.1425373   -0.0088843   -0.0176507   -0.1089619   -0.1544811   -0.9819689
  -0.1444063   -0.0126099   -0.0156461    0.4021740   -0.8899848   -0.2149025
  -0.1416972   -0.0078344   -0.0180696   -0.1867723   -0.2562386   -0.9483975
  -0.1356814   -0.0105378   -0.0156698    0.0447211   -0.8386534   -0.5428265
  -0.1251507   -0.0072290   -0.0237710    0.2491707   -0.9606142    0.1230218
  -0.1220634   -0.0063559   -0.0238212    0.3257089   -0.9417838    0.0834083
  -0.1313570   -0.0076290   -0.0240205   -0.2540374   -0.9666411   -0.0327090
  -0.1291100   -0.0079076   -0.0238471   -0.0104391   -0.9966303    0.0813572
  -0.1271045   -0.0076836   -0.0237480    0.1542476   -0.9804076    0.1225096
  -0.1343617   -0.0068287   -0.0220204   -0.3483404   -0.8883286   -0.2992177
  -0.1299828    0.0168338   -0.0108484   -0.5968174    0.7491280    0.2874305
  -0.1298176    0.0139098   -0.0044856   -0.7167745    0.6972719   -0.0068002
  -0.1281963    0.0161934   -0.0042332   -0.7471756    0.6470383    0.1518885
  -0.1350066    0.0098540    0.0002768   -0.6148605    0.7885926   -0.0082569
  -0.1420234    0.0028939   -0.0092526   -0.3950251    0.8840390   -0.2498605
  -0.1395366    0.0057205   -0.0047319   -0.4863527    0.8437236   -0.2271377
  -0.1267910    0.0193274   -0.0133363   -0.1318824    0.9910409   -0.0210963
  -0.1228450    0.0175838   -0.0165043    0.3339752    0.8922574   -0.3038704
  -0.1246924    0.0189740   -0.0138860    0.1170499    0.9616830   -0.2479215
  -0.1233697    0.0175886   -0.0181511    0.5197209    0.8526326   -0.0539245
  -0.1595246   -0.0306395   -0.0278916    0.8821593   -0.4492252    0.1413923
  -0.1648446   -0.0341223   -0.0282320    0.6903935   -0.6565033    0.3039082
  -0.1639965   -0.0352809   -0.0317809    0.8522666   -0.4788972    0.2104735
  -0.1751819   -0.0371078   -0.0272601   -0.6718727   -0.0641086   -0.7378870
  -0.1747467   -0.0391908   -0.0270852   -0.5824457   -0.2516309   -0.7729417
  -0.1654308   -0.0359568   -0.0290180    0.8407041   -0.3084139    0.4450813
  -0.1674110   -0.0424795   -0.0274708    0.8784931    0.0342390    0.4765265
  -0.1704613   -0.0500400   -0.0273838   -0.3842567   -0.3099642   -0.8696373
  -0.1727930   -0.0468368   -0.0260229   -0.6800787   -0.2218474   -0.6987680
  -0.1679037   -0.0496738   -0.0236529    0.9137575    0.1456303    0.3792612
  -0.1671606   -0.0522520   -0.0240586    0.9179175    0.1533493    0.3659391
  -0.1667172   -0.0547542   -0.0244733    0.9475650   -0.2211470   -0.2306826
  -0.1754481   -0.0339567   -0.0267370   -0.7846646    0.1975227   -0.5876107
  -0.1769397   -0.0353316   -0.0240021   -0.9949047    0.0191792   -0.0989786
  -0.1768652   -0.0338582   -0.0221983   -0.9836926    0.1655868    0.0702127
  -0.1766536   -0.0348343   -0.0212296   -0.9431234    0.0636957    0.3262837
  -0.1751563   -0.0306276   -0.0188404   -0.8771774   -0.0035306    0.4801534
  -0.1195810   -0.0055091   -0.0246181    0.5254401   -0.8436806    0.1100720
  -0.1173417   -0.0045188   -0.0282262    0.6493579   -0.7387259    0.1806053
  -0.1147767   -0.0015291   -0.0263399    0.7568102   -0.6524453   -0.0394128
  -0.1144060    0.0019023   -0.0261476    0.9441066    0.0389467   -0.3273315
  -0.1146141    0.0000356   -0.0270293    0.9775851   -0.0917915   -0.1894776
  -0.1132074    0.0452528   -0.0341117    0.1435353    0.7930748    0.5919712
  -0.0939366    0.0269025   -0.0233803    0.7636990    0.6023872   -0.2321498
  -0.0957736    0.0279960   -0.0257700    0.7579056    0.4483246   -0.4739031
  -0.0918328    0.0252201   -0.0157838    0.6933379    0.7202110   -0.0240560
  -0.0951688    0.0256749   -0.0264066    0.6648467    0.1983544   -0.7201627
  -0.1064221    0.0373412   -0.0209852   -0.1140801    0.8401724    0.5301850
  -0.1064945    0.0364217   -0.0188854   -0.4189587    0.9000736    0.1197546
  -0.0948198    0.0279471   -0.0156021    0.6542292    0.7550699    0.0430527
  -0.1057419    0.0359924   -0.0118486   -0.3409414    0.9239987    0.1731631
  -0.0918644    0.0198371   -0.0223238    0.3178572   -0.5074094   -0.8009385
  -0.0988721    0.0195190   -0.0249285    0.3172939   -0.6439821   -0.6961405
  -0.1013887    0.0219349   -0.0279327    0.6562138   -0.4168259   -0.6289989
  -0.0923102    0.0228595   -0.0241565    0.5547928   -0.1441486   -0.8194060
  -0.1027591    0.0194221   -0.0271480    0.5796187   -0.6230137   -0.5252581
  -0.1044996    0.0189174   -0.0297429    0.8122939   -0.4891472   -0.3176691
  -0.1080392    0.0369336   -0.0213014   -0.2691955    0.6904805    0.6713944
  -0.1237688    0.0198001   -0.0119607   -0.1698886    0.8419901   -0.5120455
  -0.1222050    0.0208258   -0.0108080   -0.2163033    0.8578109   -0.4662332
  -0.1216619    0.0182667   -0.0144763   -0.1483451    0.7739612   -0.6156117
  -0.1175486    0.0151210   -0.0182584   -0.2099419    0.4375923   -0.8743211
  -0.1190713    0.0222014   -0.0096264   -0.2407383    0.9218706   -0.3036441
  -0.1082263    0.0350004   -0.0173884   -0.6533294    0.7511525   -0.0945021
  -0.1082209    0.0351712   -0.0160153   -0.6748996    0.7008027    0.2310544
  -0.1123266    0.0268715   -0.0054885   -0.6378268    0.7655209   -0.0845857
  -0.1090962    0.0294918   -0.0045145   -0.7309682    0.6821710   -0.0181184
  -0.1069782    0.0347871   -0.0129770   -0.8059758    0.4901013    0.3319693
  -0.1067543    0.0328345   -0.0054522   -0.8587430    0.5119505    0.0216120
  -0.1061587    0.0347688   -0.0105449   -0.8686197    0.4701640    0.1563508
  -0.1160547    0.0249890    0.0002765   -0.4875707    0.8730536    0.0072320
  -0.1154935    0.0108720   -0.0221718    0.6609705    0.6601943   -0.3567373
  -0.1165651    0.0103491   -0.0248062    0.7746967    0.5252008   -0.3521494
  -0.1187194    0.0142973   -0.0192901    0.4357374    0.7939068   -0.4240812
  -0.1019859    0.0132816   -0.0186010    0.2381618   -0.5882881   -0.7727846
  -0.1022825    0.0165271   -0.0229396    0.2547337   -0.7913694   -0.5557385
  -0.1134462    0.0036842   -0.0245409    0.8902366    0.1608521   -0.4261518
  -0.1100744    0.0092458   -0.0201453    0.3284813    0.0460426   -0.9433876
  -0.1140059    0.0109900   -0.0204671    0.2243126    0.4146050   -0.8819221
  -0.1656854   -0.0163585   -0.0159718    0.0893414    0.6742511   -0.7330782
  -0.1785522   -0.0299621   -0.0108584   -0.8074865    0.1851731   -0.5600683
  -0.1788690   -0.0264268   -0.0074454   -0.9151394    0.4009191    0.0422341
  -0.1776473   -0.0316957   -0.0012080   -0.6533816    0.3633304    0.6641412
  -0.1714577   -0.0183440   -0.0082766   -0.4526184    0.5440418    0.7065091
  -0.1741732   -0.0303932   -0.0170601   -0.8582151   -0.5099602    0.0583741
  -0.1748288   -0.0309240   -0.0152885   -0.8395396    0.0010128   -0.5432975
  -0.1584732   -0.0272689   -0.0275118    0.9721677   -0.0955274    0.2139264
  -0.1591720   -0.0216497   -0.0154437    0.6929182    0.0138653   -0.7208828
  -0.1614063   -0.0307939   -0.0182342    0.5836920   -0.8118514   -0.0141756
  -0.1592921   -0.0268464   -0.0151308    0.9394014   -0.3362002   -0.0670410
  -0.1585684   -0.0241131   -0.0147999    0.9332925   -0.2018884   -0.2969953
  -0.1548829   -0.0201139   -0.0135806    0.5455688   -0.6831254   -0.4854837
  -0.1499880   -0.0166241   -0.0086090    0.6401283   -0.7607323   -0.1073416
  -0.1529040   -0.0189764   -0.0113696    0.7018180   -0.6867454   -0.1892939
  -0.1478945   -0.0152741   -0.0090867    0.5524880   -0.8321757   -0.0473354
  -0.1571488   -0.0227911   -0.0129749    0.7126428   -0.4786691   -0.5128510
  -0.1522681    0.0000313    0.0061422   -0.6541993    0.7471686    0.1173129
  -0.1447080    0.0051856    0.0002760   -0.4012189    0.9139998   -0.0602312
  -0.1495376    0.0018744    0.0078047   -0.4446836    0.8818977    0.1565660
  -0.1455347    0.0034118    0.0057277   -0.2780285    0.9294152    0.2426674
  -0.1518871   -0.0008831    0.0133713   -0.3377232    0.9348916    0.1091826
  -0.1600953   -0.0037430    0.0139531   -0.3372824    0.5839135   -0.7384346
  -0.1617649   -0.0124527    0.0129934   -0.8376002    0.5440089   -0.0498029
  -0.1623689   -0.0087596    0.0134341   -0.8849348   -0.1215988   -0.4495599
  -0.1636682   -0.0044148    0.0157129   -0.6211204    0.4222031   -0.6602681
  -0.1635862   -0.0066038    0.0152040   -0.8909675   -0.0038578   -0.4540507
  -0.1714685   -0.0183622    0.0088196   -0.4567061    0.5498906   -0.6993138
  -0.1765752   -0.0219940    0.0093422   -0.8823677    0.4571447   -0.1115614
  -0.1755694   -0.0334427    0.0003687   -0.9787301    0.2037839   -0.0236539
  -0.1776516   -0.0316955    0.0019477   -0.6333180    0.2898492   -0.7175624
  -0.1788690   -0.0264268    0.0079994   -0.8954973    0.4260285   -0.1287803
  -0.1690471   -0.0147477    0.0099545   -0.3551673    0.7250936   -0.5899962
  -0.1421755    0.0047677   -0.0040342   -0.3258855    0.9010796   -0.2861018
  -0.1371948   -0.0112837   -0.0117737    0.2593831   -0.9630693   -0.0722356
  -0.1375870   -0.0116801   -0.0093833    0.2905425   -0.9548409   -0.0621602
  -0.1487254   -0.0161794    0.0021384    0.6538415   -0.7565384    0.0118712
  -0.1397585   -0.0126197    0.0079125    0.2753693   -0.9609279    0.0280931
  -0.1444062   -0.0126098    0.0162001    0.5372148   -0.8199796    0.1975697
  -0.1319096   -0.0079866   -0.0205806    0.1147916   -0.9812046   -0.1551144
  -0.1343544   -0.0105017   -0.0138487    0.3333388   -0.9396128   -0.0775439
  -0.1244098   -0.0066795   -0.0144162    0.2481519   -0.9687194   -0.0018312
  -0.1205811   -0.0054215   -0.0143353    0.3678651   -0.9294852   -0.0270637
  -0.1271324    0.0193041   -0.0108514   -0.4496184    0.8918970   -0.0486112
  -0.1298180    0.0139098    0.0050395   -0.7697335    0.6361715   -0.0528785
  -0.1319902    0.0118965    0.0050186   -0.6786897    0.7293865    0.0858814
  -0.1256642    0.0180064    0.0002764   -0.7172309    0.6962820   -0.0277709
  -0.1256729    0.0187847   -0.0042125   -0.6861325    0.7125447    0.1466361
  -0.1261091    0.0194621   -0.0084391   -0.6257136    0.7614499    0.1693417
  -0.1399619    0.0068630    0.0002818   -0.4147967    0.9080153   -0.0587526
  -0.1395368    0.0057201    0.0052864   -0.4799244    0.8487190    0.2221454
  -0.1363489    0.0080609    0.0048393   -0.5862126    0.7904227    0.1777266
  -0.1339916    0.0098556    0.0047779   -0.6768879    0.7229062    0.1386702
  -0.1671242   -0.0360816   -0.0266642    0.7423048   -0.2815975    0.6080185
  -0.1686845   -0.0342121   -0.0241981    0.5552113   -0.5745036    0.6014034
  -0.1758930   -0.0359998   -0.0264724   -0.8624442   -0.0518374   -0.5034906
  -0.1752230   -0.0414368   -0.0254607   -0.8443634   -0.2452749   -0.4763304
  -0.1677139   -0.0386208   -0.0267943    0.7899023   -0.1012678    0.6048134
  -0.1686614   -0.0413811   -0.0254313    0.8386241    0.0316318    0.5437913
  -0.1685510   -0.0467906   -0.0239685    0.8776098    0.2341374    0.4183069
  -0.1692691   -0.0437142   -0.0241168    0.9032475    0.1920682    0.3837365
  -0.1721405   -0.0492893   -0.0258516   -0.8627977   -0.2855496   -0.4171829
  -0.1696055   -0.0566733   -0.0242484   -0.4927980   -0.4995088   -0.7124894
  -0.1716513   -0.0519101   -0.0253405   -0.7447880   -0.3405576   -0.5738565
  -0.1744012   -0.0465206   -0.0236244   -0.8573716   -0.3420953   -0.3845579
  -0.1692415   -0.0510139   -0.0189518    0.9557552   -0.1657886    0.2429941
  -0.1694970   -0.0490192   -0.0190307    0.9748476    0.1394003    0.1738958
  -0.1676046   -0.0533656   -0.0224605    0.9044889    0.0908024    0.4167191
  -0.1684203   -0.0536155   -0.0208415    0.8675843    0.0611584    0.4935152
  -0.1695040   -0.0519293   -0.0185813    0.8538708   -0.2221959    0.4706737
  -0.1694680   -0.0566475   -0.0189367    0.8217353    0.1705720    0.5437429
  -0.1680114   -0.0613323   -0.0207348    0.8534971   -0.3597264   -0.3770141
  -0.1764374   -0.0374915   -0.0248672   -0.9245762   -0.1595578   -0.3459770
  -0.1762697   -0.0362783   -0.0189923   -0.9873879    0.1467315    0.0594566
  -0.1762749   -0.0393979   -0.0192427   -0.9983079   -0.0224051   -0.0536595
  -0.1767247   -0.0381980   -0.0233176   -0.9836267   -0.1541155   -0.0934176
  -0.1766138   -0.0381925   -0.0216159   -0.9939686   -0.0771174    0.0779703
  -0.1758467   -0.0341563   -0.0200324   -0.4812849    0.3432618    0.8065582
  -0.1743477   -0.0348283   -0.0200526    0.1437972    0.0593607    0.9878252
  -0.1741859   -0.0332287   -0.0194707   -0.0103136   -0.3210131    0.9470186
  -0.1741817   -0.0314427   -0.0187338   -0.2099519   -0.5849079    0.7834557
  -0.1133662   -0.0033473   -0.0118366    0.4657374   -0.8581037   -0.2162101
  -0.1169884   -0.0046486   -0.0117537    0.2937799   -0.9473424   -0.1274198
  -0.1128965    0.0011739   -0.0230628    0.8324399   -0.2585865   -0.4900785
  -0.0910069    0.0238176   -0.0211669    0.7799887    0.5901298   -0.2082412
  -0.0903255    0.0222626   -0.0217843    0.8009556    0.3743685   -0.4672455
  -0.0921235    0.0254219   -0.0135488    0.6521743    0.7577997    0.0202063
  -0.0905484    0.0240978   -0.0114228    0.6700075    0.7421424   -0.0177370
  -0.0862155    0.0191830   -0.0162811    0.8177997    0.5114582   -0.2638449
  -0.0923058    0.0255101   -0.0113631    0.6451080    0.7636898    0.0247707
  -0.0922673    0.0253740   -0.0083680    0.6413059    0.7672518    0.0071767
  -0.1055314    0.0354568   -0.0064790   -0.9136022    0.4013207    0.0653664
  -0.1047738    0.0361889    0.0002765   -0.6750355    0.7377259   -0.0093536
  -0.0899419    0.0206631   -0.0220023    0.6346030   -0.2190664   -0.7411403
  -0.0883483    0.0153382   -0.0170172    0.3988616   -0.6214595   -0.6743127
  -0.0998888    0.0077672   -0.0121739    0.4810025   -0.7482762   -0.4568580
  -0.0926659    0.0155282   -0.0178975    0.1634210   -0.7620707   -0.6265316
  -0.1251522    0.0205156   -0.0104389   -0.3781134    0.8835456   -0.2763647
  -0.1232873    0.0216031   -0.0088461   -0.3926157    0.9095425   -0.1363279
  -0.1091673    0.0296215    0.0002761   -0.7198280    0.6941522    0.0005701
  -0.1122964    0.0268947    0.0060182   -0.6303112    0.7716834    0.0849269
  -0.1222043    0.0208289    0.0113602   -0.2094690    0.8755773    0.4353011
  -0.1148654    0.0233468    0.0117791   -0.5479640    0.8329658   -0.0768340
  -0.1229707    0.0213061   -0.0044915   -0.5976227    0.7918753    0.1256208
  -0.1229029    0.0206047    0.0002769   -0.6357266    0.7719143   -0.0000860
  -0.1229746    0.0213047    0.0050455   -0.5977192    0.7917964   -0.1256594
  -0.1232872    0.0216037    0.0094003   -0.3917015    0.9148083    0.0984662
  -0.1119618    0.0261799    0.0112874   -0.7060109    0.6872185   -0.1711120
  -0.1129822    0.0068326   -0.0221540    0.6931929    0.3280992   -0.6417433
  -0.1095442    0.0045663   -0.0197706    0.6345273   -0.3037305   -0.7107200
  -0.1777584   -0.0332034   -0.0119299   -0.7131598    0.0270949   -0.7004777
  -0.1792647   -0.0324419   -0.0105222   -0.7973472    0.1115208   -0.5931278
  -0.1764469   -0.0318650   -0.0134428   -0.7474751   -0.0091375   -0.6642270
  -0.1798310   -0.0316849   -0.0088027   -0.9035343    0.2396720   -0.3552225
  -0.1806882   -0.0320283   -0.0066412   -0.9442915    0.3124390   -0.1034185
  -0.1799554   -0.0313666   -0.0043218   -0.8274232    0.4065307    0.3874322
  -0.1806058   -0.0352572   -0.0022932   -0.7323179    0.2165330    0.6456190
  -0.1799957   -0.0429230   -0.0014829   -0.5706230   -0.0036896    0.8212038
  -0.1728360   -0.0321722   -0.0192084    0.0112895   -0.9784013    0.2064059
  -0.1734160   -0.0326261   -0.0174496   -0.5915884   -0.5968966   -0.5419757
  -0.1739960   -0.0339863   -0.0159435   -0.4926786   -0.2053270   -0.8456409
  -0.1715054   -0.0321265   -0.0197289    0.2706734   -0.8226263    0.5000218
  -0.1674911   -0.0333098   -0.0153957    0.1843917   -0.8050641   -0.5638010
  -0.1700397   -0.0328966   -0.0168414    0.1917621   -0.8277976   -0.5272367
  -0.1595850   -0.0286226   -0.0133157    0.8230140   -0.5551885   -0.1200572
  -0.1645374   -0.0331181   -0.0147523    0.5109195   -0.8051272   -0.3012167
  -0.1553323   -0.0239820   -0.0053446    0.8056082   -0.5739332   -0.1469563
  -0.1550232   -0.0214574   -0.0105806    0.7152384   -0.6506436   -0.2551410
  -0.1499423   -0.0168154   -0.0063730    0.6920195   -0.7203724   -0.0466115
  -0.1515720   -0.0187370   -0.0062240    0.7569642   -0.6476964   -0.0865706
  -0.1517397   -0.0184150   -0.0084796    0.7229909   -0.6730417   -0.1558815
  -0.1534030   -0.0203206   -0.0082382    0.7649933   -0.6183927   -0.1799327
  -0.1419813    0.0061847    0.0002772   -0.3370982    0.9370778    0.0908298
  -0.1414863    0.0024259    0.0128027   -0.3699505    0.9171155    0.1484445
  -0.1420232    0.0028934    0.0098063   -0.4018958    0.8835364    0.2405061
  -0.1447825    0.0006361    0.0145861   -0.3559795    0.7728208    0.5253824
  -0.1446838   -0.0034684    0.0170232   -0.3599910    0.3112124    0.8795188
  -0.1478684   -0.0049500    0.0166369    0.4692335    0.6858355    0.5562819
  -0.1457458   -0.0052946    0.0167772   -0.2359481    0.3663347    0.9000708
  -0.1521022   -0.0003481    0.0152599    0.4962471    0.8613924   -0.1083602
  -0.1559011   -0.0003407    0.0152974   -0.1230213    0.7667851   -0.6300051
  -0.1578598   -0.0021888    0.0144170   -0.2539902    0.6086854   -0.7516589
  -0.1593967   -0.0009521    0.0158830   -0.3164553    0.5996596   -0.7350268
  -0.1609050   -0.0145815    0.0148489   -0.6675487    0.1908250    0.7196976
  -0.1623588   -0.0105368    0.0150505   -0.9312064   -0.3644906    0.0011008
  -0.1717338   -0.0154772    0.0109647   -0.4914183    0.8273222    0.2721141
  -0.1642479   -0.0079341    0.0177736   -0.8627872   -0.4462671   -0.2375794
  -0.1645807   -0.0033200    0.0178460   -0.8484014    0.4015720   -0.3448985
  -0.1607459    0.0005929    0.0177567   -0.5010227    0.6849343   -0.5290003
  -0.1658584   -0.0061151    0.0210215   -0.9329939    0.0189022   -0.3593953
  -0.1655098   -0.0038759    0.0209989   -0.9282927    0.2948946   -0.2265167
  -0.1751716   -0.0306442    0.0193432   -0.9069274    0.1117250   -0.4062022
  -0.1728885   -0.0266464    0.0196898   -0.8297355    0.4212921    0.3661312
  -0.1713468   -0.0193446    0.0161059   -0.8190732    0.4509964    0.3545720
  -0.1785522   -0.0299622    0.0114123   -0.8073882    0.1852320    0.5601905
  -0.1741733   -0.0303934    0.0176135   -0.8532651   -0.5173863   -0.0651925
  -0.1748285   -0.0309242    0.0158423   -0.8395384    0.0010941    0.5432993
  -0.1775793   -0.0460547    0.0002769   -0.9979864   -0.0634230   -0.0007876
  -0.1799957   -0.0429230    0.0020371   -0.5970282    0.0044022   -0.8022082
  -0.1824214   -0.0428590    0.0039110   -0.7685602    0.0001714   -0.6397775
  -0.1815020   -0.0347685    0.0051305   -0.9653000    0.2122668   -0.1521145
  -0.1799553   -0.0313666    0.0048887   -0.8289081    0.3916250   -0.3994261
  -0.1806883   -0.0320283    0.0071955   -0.9648662    0.1996259    0.1708297
  -0.1798324   -0.0316851    0.0093571   -0.9131055    0.2038460    0.3531080
  -0.1347932   -0.0106457   -0.0113731    0.3055013   -0.9521760    0.0054568
  -0.1353557   -0.0107953   -0.0090012    0.3402686   -0.9401824   -0.0165633
  -0.1523014   -0.0197330   -0.0019148    0.7917645   -0.6107397   -0.0102988
  -0.1499878   -0.0166239    0.0091629    0.6321706   -0.7688778    0.0958505
  -0.1516054   -0.0188319    0.0046868    0.7701736   -0.6370355    0.0319121
  -0.1523005   -0.0197324    0.0024689    0.7936289   -0.6083374    0.0088764
  -0.1379424   -0.0108197    0.0165053    0.0750143   -0.9129504    0.4011165
  -0.1394892   -0.0114675    0.0154154    0.1947390   -0.8781639    0.4369267
  -0.1220898   -0.0061770   -0.0086826    0.2790316   -0.9591404   -0.0468088
  -0.1262698   -0.0075203   -0.0087749    0.3177782   -0.9473277   -0.0398408
  -0.1300611   -0.0088230   -0.0089150    0.3482427   -0.9372475   -0.0171525
  -0.1328121   -0.0098569   -0.0089311    0.3510674   -0.9363366    0.0050471
  -0.1176668   -0.0050145   -0.0089427    0.2602839   -0.9629146   -0.0710474
  -0.1134273   -0.0039372   -0.0092296    0.3447752   -0.9354106   -0.0783391
  -0.1178063   -0.0039453    0.0178394    0.4068730   -0.9127739   -0.0360286
  -0.1316195   -0.0092695    0.0148071    0.3511522   -0.9290278    0.1166171
  -0.1343541   -0.0105014    0.0144028    0.3377928   -0.9323933    0.1286030
  -0.1419120   -0.0120622    0.0155498    0.2734432   -0.8720029    0.4060046
  -0.1086183   -0.0014946    0.0125820    0.5996679   -0.7547142    0.2660917
  -0.1356811   -0.0105377    0.0162237    0.2132247   -0.9510135    0.2238496
  -0.1476196   -0.0142958    0.0221655    0.8241048   -0.5654774   -0.0329631
  -0.1470310   -0.0122994    0.0224322    0.9819318   -0.1712569    0.0805046
  -0.1444727   -0.0114043    0.0178075    0.7258222   -0.2318511    0.6476320
  -0.1466849   -0.0139860    0.0158038    0.5470403   -0.8364251    0.0337631
  -0.1316199   -0.0092691   -0.0142535    0.3766360   -0.9193123   -0.1140624
  -0.1252900   -0.0070646   -0.0115764    0.3013066   -0.9520726   -0.0526503
  -0.1292125   -0.0084061   -0.0116396    0.3523803   -0.9353197   -0.0317055
  -0.1282002    0.0161917    0.0047870   -0.7618577    0.6224340   -0.1793008
  -0.1290726    0.0165208    0.0096103   -0.7487632    0.6076466   -0.2648006
  -0.1331811    0.0097658    0.0108532   -0.7237704    0.4533774   -0.5201973
