NORM_ASCII
798 1595
  -0.0510530    0.4270587   -0.1371581   -0.9289523    0.3673837    0.0455723
  -0.0532902    0.4227348   -0.1367663   -0.8239648    0.5666097   -0.0059479
  -0.0501832    0.4295043   -0.1392550   -0.9132114    0.4067828   -0.0239295
  -0.0496068    0.4302335   -0.1430501   -0.8804494    0.4704846   -0.0587626
  -0.0490157    0.4312369   -0.1520748   -0.5934458    0.8013065   -0.0756970
  -0.0508610    0.4293646   -0.1494651   -0.7960331    0.6022864    0.0598526
  -0.0487631    0.4284306   -0.1680463   -0.2164892    0.8792157   -0.4243962
  -0.0403383    0.4342609   -0.1590182    0.1737783    0.6501201   -0.7396925
  -0.0388287    0.4221347   -0.1343417    0.5088246   -0.5357627    0.6738367
  -0.0477640    0.4144237   -0.1378939    0.3332422   -0.7238685    0.6041225
  -0.0550771    0.4131320   -0.1358289    0.1308559   -0.5151327    0.8470626
  -0.0585268    0.4062834   -0.1396376    0.4003131   -0.5699766    0.7175487
  -0.0499725    0.4114726   -0.1402312    0.3901881   -0.6951492    0.6037556
  -0.0512248    0.4174994   -0.1338289    0.1082355   -0.4821664    0.8693680
  -0.0536926    0.4161330   -0.1342915    0.1385586   -0.4922516    0.8593543
  -0.0424053    0.4172037   -0.1375441    0.4400930   -0.7319919    0.5201019
  -0.0403499    0.4199308   -0.1354466    0.4874882   -0.6942600    0.5294887
  -0.0548752    0.4185113   -0.1328015   -0.2636065    0.0535470    0.9631429
  -0.0538939    0.4203534   -0.1331248   -0.7263761    0.4078021    0.5532406
  -0.0542255    0.4212488   -0.1354526   -0.8243799    0.5412919    0.1655322
  -0.0530944    0.4221664   -0.1333132   -0.7840975    0.4521646    0.4251333
  -0.0553188    0.4202482   -0.1385606   -0.7789628    0.6245046    0.0566647
  -0.0291235    0.4266919   -0.1385398    0.4788939   -0.6033063    0.6377163
  -0.0314382    0.4282332   -0.1357711    0.4610409   -0.3962242    0.7940073
  -0.0336713    0.4246266   -0.1366677    0.5370208   -0.5999981    0.5929679
  -0.0282085    0.4293178   -0.1369683    0.4557901   -0.3997534    0.7952689
  -0.0273631    0.4331824   -0.1364546    0.5992316   -0.0064185    0.8005500
  -0.0318511    0.4403211   -0.1472392    0.1124060    0.9876900    0.1087810
  -0.0296079    0.4403025   -0.1489521    0.1079155    0.9882125    0.1085827
  -0.0274425    0.4402040   -0.1505429    0.1261085    0.9895213    0.0703157
  -0.0174043    0.4391312   -0.1541346    0.2897577    0.9118021    0.2909595
  -0.0216865    0.4321082   -0.1421113    0.6701068    0.2192624    0.7091409
  -0.0173881    0.4344644   -0.1466796    0.5243683    0.5317186    0.6650663
  -0.0361158    0.4385153   -0.1530302   -0.4024219    0.8276088   -0.3913060
  -0.0326933    0.4387484   -0.1551055   -0.1851499    0.8513200   -0.4908909
  -0.0380135    0.4351495   -0.1581394   -0.1699394    0.6903316   -0.7032516
  -0.0273987    0.4403839   -0.1545857   -0.0973699    0.9544948   -0.2818843
  -0.0290913    0.4391791   -0.1559786   -0.2300995    0.8522042   -0.4698960
  -0.0313889    0.4394412   -0.1542641   -0.1834519    0.8624529   -0.4717207
  -0.0540008    0.4225435   -0.1405022   -0.8429862    0.5251409    0.1166246
  -0.0507498    0.4284669   -0.1447727   -0.8442997    0.5292018    0.0842827
  -0.0512365    0.4292650   -0.1539296   -0.7357051    0.6741945    0.0648055
  -0.0509677    0.4293953   -0.1616080   -0.4597098    0.8713555   -0.1714831
  -0.0524400    0.4284292   -0.1593996   -0.6675921    0.7414944   -0.0671330
  -0.0519221    0.4288726   -0.1568638   -0.7192099    0.6911631    0.0709279
  -0.0557536    0.4237339   -0.1551122   -0.8417513    0.5234069    0.1322870
  -0.0505009    0.4286482   -0.1651921   -0.5151514    0.8253089   -0.2312665
  -0.0456721    0.4274197   -0.1689355    0.1117884    0.4876820   -0.8658346
  -0.0436932    0.4308661   -0.1653958    0.3732629    0.7488486   -0.5476318
  -0.0492292    0.4270207   -0.1694308    0.0326632    0.6519698   -0.7575410
  -0.0517749    0.4263647   -0.1701050   -0.3021027    0.7886286   -0.5355362
  -0.0349307    0.4297299   -0.1570471    0.5575898   -0.0427824   -0.8290135
  -0.0363318    0.4285850   -0.1584423    0.6920631    0.2500675   -0.6771373
  -0.0315300    0.4319372   -0.1562698    0.0987741   -0.3295960   -0.9389410
  -0.0397857    0.4301738   -0.1610535    0.6845663    0.4499636   -0.5734995
  -0.0477288    0.4084264   -0.1453988    0.5068115   -0.6540143    0.5616114
  -0.0611543    0.4027534   -0.1409359    0.4628483   -0.5447944    0.6992643
  -0.0600681    0.3993164   -0.1437916    0.4488665   -0.5121224    0.7322906
  -0.0608929    0.4073495   -0.1368812    0.5730969   -0.5550741    0.6028703
  -0.0562323    0.4020507   -0.1446731    0.4976410   -0.5224439    0.6923913
  -0.0589622    0.4164005   -0.1318290    0.6341540    0.3642512    0.6820336
  -0.0402807    0.4175088   -0.1396092    0.5355040   -0.7467721    0.3944196
  -0.0422466    0.4148151   -0.1418131    0.5731834   -0.7284308    0.3752991
  -0.0299756    0.4223506   -0.1441806    0.4914821   -0.8199480    0.2934801
  -0.0328998    0.4222572   -0.1408165    0.5292778   -0.7222787    0.4451724
  -0.0332598    0.4234975   -0.1384047    0.5329861   -0.6880382    0.4924726
  -0.0673379    0.4123741   -0.1372857   -0.3834541    0.9170419   -0.1095314
  -0.0574920    0.4175820   -0.1357844   -0.6873315    0.7071987    0.1656665
  -0.0558820    0.4205244   -0.1434189   -0.8149153    0.5701322    0.1042222
  -0.0307615    0.4247875   -0.1392817    0.5056583   -0.6863773    0.5226814
  -0.0290717    0.4250536   -0.1404420    0.4487582   -0.7110268    0.5413474
  -0.0273101    0.4252624   -0.1415186    0.4142455   -0.7386518    0.5317839
  -0.0241581    0.4276122   -0.1410002    0.4556561   -0.6288779    0.6299922
  -0.0249922    0.4302145   -0.1384508    0.5886930   -0.2635345    0.7641925
  -0.0217250    0.4397124   -0.1583464   -0.0597064    0.9702933   -0.2344483
  -0.0246114    0.4400564   -0.1564703   -0.0903894    0.9493964   -0.3007927
  -0.0193964    0.4395184   -0.1560883    0.1188283    0.9927842    0.0161037
  -0.0154149    0.4386921   -0.1550346    0.3457299    0.8975696    0.2735684
  -0.0151128    0.4366450   -0.1517117    0.4021187    0.7865158    0.4687147
  -0.0148222    0.4388965   -0.1590892    0.2866298    0.9576399   -0.0277343
  -0.0207620    0.4294622   -0.1421829    0.6546073   -0.1532681    0.7402690
  -0.0181258    0.4293073   -0.1446625    0.6588551   -0.0458015    0.7508743
  -0.0118285    0.4342141   -0.1504376    0.5836258    0.4897549    0.6477044
  -0.0136642    0.4313922   -0.1487212    0.6263502    0.0724119    0.7761713
  -0.0125568    0.4363153   -0.1534194    0.5314565    0.7484144    0.3967744
  -0.0332151    0.4369084   -0.1575983   -0.1637768    0.5578320   -0.8136342
  -0.0258292    0.4390376   -0.1575512   -0.2217151    0.8394221   -0.4961986
  -0.0274684    0.4377697   -0.1590390   -0.3289593    0.1883959   -0.9253609
  -0.0561118    0.4211893   -0.1479961   -0.8622135    0.4930969    0.1159458
  -0.0519042    0.4281276   -0.1632950   -0.6398898    0.7434099   -0.1946350
  -0.0554459    0.4253037   -0.1594868   -0.7558506    0.6532984    0.0434858
  -0.0554851    0.4245409   -0.1654843   -0.6755231    0.7245271   -0.1368541
  -0.0607104    0.4143387   -0.1587250   -0.7704469    0.6374714    0.0064656
  -0.0569994    0.4206320   -0.1537730   -0.8975593    0.4248409    0.1178875
  -0.0564011    0.4235318   -0.1575285   -0.8628925    0.4899418    0.1239905
  -0.0565265    0.4209659   -0.1511533   -0.8991485    0.4265570    0.0978830
  -0.0547179    0.4245015   -0.1692785   -0.6498809    0.7227144   -0.2352419
  -0.0446304    0.4281193   -0.1684231    0.2463341    0.6015213   -0.7599287
  -0.0489599    0.4245433   -0.1707402    0.2610634    0.2321769   -0.9369844
  -0.0505512    0.4255410   -0.1706349    0.0937405    0.4860286   -0.8689010
  -0.0436500    0.4273633   -0.1684382    0.3414837    0.3405805   -0.8760102
  -0.0445979    0.4262477   -0.1690571    0.2947652    0.1839937   -0.9376885
  -0.0453480    0.4248429   -0.1694592    0.3121280    0.1370735   -0.9400994
  -0.0379683    0.4264269   -0.1654990    0.6888351    0.5309466   -0.4935604
  -0.0377540    0.4268038   -0.1638451    0.7347361    0.6281719   -0.2560524
  -0.0404634    0.4277873   -0.1663575    0.4619355    0.6007944   -0.6524275
  -0.0402085    0.4294563   -0.1624003    0.6569382    0.6652241   -0.3548368
  -0.0534747    0.4246497   -0.1713383   -0.1944704    0.6183540   -0.7614589
  -0.0540165    0.4245725   -0.1707160   -0.6239745    0.7068508   -0.3331934
  -0.0345317    0.4260105   -0.1569458    0.7533599    0.0466980   -0.6559483
  -0.0301799    0.4278154   -0.1542405    0.2845565   -0.3675004   -0.8854214
  -0.0315688    0.4253333   -0.1537508    0.5372293   -0.3774837   -0.7542485
  -0.0332388    0.4248112   -0.1556077    0.7761847   -0.0823144   -0.6251093
  -0.0371419    0.4277302   -0.1597835    0.7827788    0.4343827   -0.4456108
  -0.0354269    0.4248243   -0.1583417    0.8925309    0.2063951   -0.4009859
  -0.0295775    0.4300672   -0.1550752    0.0390882   -0.5290461   -0.8476923
  -0.0259370    0.4285358   -0.1544299   -0.2126095   -0.5847197   -0.7828794
  -0.0254977    0.4305959   -0.1561681   -0.3671648   -0.5467881   -0.7524711
  -0.0513236    0.4035785   -0.1469838    0.5551681   -0.4503264    0.6992814
  -0.0484155    0.4039411   -0.1491287    0.5722892   -0.5765706    0.5831393
  -0.0453006    0.4062541   -0.1503863    0.6957082   -0.5233811    0.4919983
  -0.0418340    0.4133936   -0.1457790    0.6893581   -0.6756356    0.2613465
  -0.0624207    0.3964364   -0.1443925    0.5700475   -0.3802639    0.7283167
  -0.0626086    0.4046126   -0.1382016    0.5888949   -0.5488923    0.5932284
  -0.0578411    0.3955884   -0.1478530    0.5144808   -0.3720224    0.7725987
  -0.0669767    0.4151133   -0.1208096    0.7075150   -0.4028766    0.5806142
  -0.0654113    0.4196068   -0.1207008    0.7012348    0.6946730    0.1603096
  -0.0676331    0.4183319   -0.1215492   -0.3421667    0.8099854   -0.4762830
  -0.0373419    0.4181746   -0.1428502    0.5921141   -0.7939351    0.1380871
  -0.0302736    0.4235941   -0.1416331    0.4568682   -0.7734408    0.4393868
  -0.0327111    0.4213539   -0.1476326    0.3665083   -0.8998948   -0.2363494
  -0.0251200    0.4232754   -0.1483562    0.1942492   -0.9797437   -0.0486786
  -0.1081080    0.4042643   -0.1089700   -0.3064626    0.9500467   -0.0590928
  -0.0673734    0.4116508   -0.1460945   -0.1504903    0.9815546    0.1179123
  -0.0253353    0.4254782   -0.1427190    0.3868905   -0.7743703    0.5006659
  -0.0260910    0.4240147   -0.1447658    0.3414177   -0.8596778    0.3799842
  -0.0232681    0.4255945   -0.1441105    0.4077974   -0.7518114    0.5181514
  -0.0190041    0.4276850   -0.1449525    0.5151903   -0.5696522    0.6403712
  -0.0241394    0.4377213   -0.1605727   -0.4029336    0.5446653   -0.7355163
  -0.0190405    0.4394422   -0.1600163    0.0092863    0.9838877   -0.1785462
  -0.0173699    0.4371571   -0.1656220   -0.3857661    0.5535934   -0.7380507
  -0.0133741    0.4382606   -0.1563835    0.4393451    0.8609070    0.2565443
  -0.0166656    0.4390848   -0.1616339    0.0541176    0.9658357   -0.2534418
  -0.0132874    0.4374151   -0.1649349    0.2547343    0.8892495   -0.3799285
  -0.0149150    0.4383806   -0.1633090    0.1714849    0.9384588   -0.2998132
  -0.0114957    0.4373765   -0.1580509    0.5300287    0.8422603    0.0983223
  -0.0114155    0.4370335   -0.1623602    0.4675606    0.8737309   -0.1340948
  -0.0128971    0.4282901   -0.1494564    0.5971838   -0.3375868    0.7276034
  -0.0106936    0.4306960   -0.1511936    0.6399809   -0.0369592    0.7675014
  -0.0094544    0.4340679   -0.1522239    0.6257108    0.4224825    0.6557396
  -0.0096814    0.4363436   -0.1597132    0.5606881    0.8230140    0.0909775
  -0.0229347    0.4338147   -0.1594410   -0.5852262   -0.3715927   -0.7207144
  -0.0562893    0.4242779   -0.1616456   -0.8480447    0.5298575    0.0084345
  -0.0590062    0.4202619   -0.1683705   -0.8011624    0.5922730   -0.0857405
  -0.0633486    0.4133406   -0.1555873    0.0691084    0.9942680    0.0815787
  -0.0626818    0.4135296   -0.1584745   -0.1237390    0.9624150   -0.2417560
  -0.0634120    0.4107559   -0.1629935   -0.4778065    0.6014714   -0.6402602
  -0.0610336    0.4130405   -0.1641171   -0.9305155    0.3662461    0.0021430
  -0.0574742    0.4211797   -0.1697940   -0.6850841    0.6487345   -0.3313659
  -0.0420106    0.4275614   -0.1674850    0.4178567    0.5135732   -0.7494254
  -0.0539912    0.4212957   -0.1728330    0.1374311    0.3553359   -0.9245805
  -0.0504107    0.4227733   -0.1715547    0.3274998    0.1598729   -0.9312274
  -0.0430048    0.4234869   -0.1687046    0.3516485    0.0445237   -0.9350727
  -0.0396316    0.4262179   -0.1668503    0.4484452    0.2452129   -0.8595158
  -0.0358973    0.4246037   -0.1602821    0.9114708    0.3714619   -0.1767400
  -0.0371775    0.4236677   -0.1660560    0.5634565    0.2272342   -0.7942804
  -0.0364290    0.4238330   -0.1653665    0.8017694    0.3633319   -0.4745057
  -0.0376343    0.4271643   -0.1625096    0.7757833    0.5958430   -0.2076811
  -0.0374982    0.4273611   -0.1613092    0.7780410    0.5759800   -0.2507972
  -0.0553767    0.4221186   -0.1726522   -0.4180884    0.6123774   -0.6709664
  -0.0344940    0.4212191   -0.1567074    0.9647230   -0.2102512   -0.1584423
  -0.0294664    0.4263658   -0.1534249    0.2761310   -0.4540716   -0.8470954
  -0.0279651    0.4283894   -0.1538975    0.0401117   -0.5115585   -0.8583117
  -0.0268296    0.4255918   -0.1523238   -0.0115619   -0.6177876   -0.7862600
  -0.0328511    0.4229734   -0.1541073    0.7976179   -0.4941803   -0.3458201
  -0.0288353    0.4248874   -0.1522051    0.2418002   -0.6753844   -0.6966984
  -0.0310737    0.4239066   -0.1521071    0.4525154   -0.7462127   -0.4882585
  -0.0347294    0.4214157   -0.1593467    0.9805751    0.1805662   -0.0766043
  -0.0239152    0.4284844   -0.1552127   -0.4129404   -0.5973228   -0.6875214
  -0.0230532    0.4270515   -0.1545274   -0.3739401   -0.5798975   -0.7238008
  -0.0175672    0.4279797   -0.1606514   -0.5812349   -0.6227245   -0.5238131
  -0.0214133    0.4279445   -0.1566063   -0.5189945   -0.6292674   -0.5785043
  -0.0495480    0.3924703   -0.1548643    0.5999616   -0.3307483    0.7284584
  -0.0522900    0.3900049   -0.1535503    0.5566594   -0.3469854    0.7548056
  -0.0548372    0.3924997   -0.1508601    0.5489984   -0.3091216    0.7765595
  -0.0458900    0.4020405   -0.1534570    0.6415796   -0.4455656    0.6243772
  -0.0451808    0.3979728   -0.1557755    0.6519157   -0.2782646    0.7053898
  -0.0451645    0.3941461   -0.1574447    0.5948486   -0.3120141    0.7408120
  -0.0430733    0.4044534   -0.1549152    0.6975611   -0.3799563    0.6074881
  -0.0409964    0.4093925   -0.1541150    0.7417428   -0.4310842    0.5137938
  -0.0411874    0.4125570   -0.1501430    0.7854051   -0.5335690    0.3137563
  -0.0365964    0.4180819   -0.1506498    0.7509513   -0.6537043    0.0935036
  -0.0371504    0.4179889   -0.1463523    0.7019699   -0.7081889    0.0755432
  -0.0619660    0.3633946   -0.1509807    0.8215633   -0.3368326    0.4599755
  -0.0855850    0.3913695   -0.1243389    0.6742414   -0.3716741    0.6381668
  -0.0842347    0.4298330   -0.0934551    0.7105762   -0.1910230    0.6771940
  -0.0734405    0.4248995   -0.1092786    0.7497892    0.6303198    0.2012787
  -0.0694258    0.4222531   -0.1149897    0.8395611    0.3083310    0.4472910
  -0.0674718    0.4210461   -0.1179909    0.3141855    0.9216207   -0.2278219
  -0.1109142    0.4086845   -0.0918287   -0.6432906    0.5848058   -0.4941451
  -0.0755472    0.4247813   -0.1087685   -0.3580295    0.6905223   -0.6284853
  -0.0714864    0.4236926   -0.1122797    0.1889083    0.9386553   -0.2885133
  -0.0343868    0.4204740   -0.1486638    0.6627513   -0.7475209   -0.0444199
  -0.0327153    0.4222855   -0.1506736    0.5941988   -0.7748777   -0.2156207
  -0.0309629    0.4226948   -0.1494157    0.2861014   -0.8690842   -0.4035327
  -0.0281591    0.4235656   -0.1502318    0.1809820   -0.8448381   -0.5034819
  -0.0239531    0.4241910   -0.1461889    0.3094659   -0.8724188    0.3783071
  -0.0186013    0.4236227   -0.1520255    0.0387398   -0.9986869    0.0335224
  -0.0232821    0.4243783   -0.1513724   -0.1852407   -0.8632447   -0.4695684
  -0.0258020    0.4243863   -0.1508066    0.0641176   -0.8358942   -0.5451328
  -0.1033598    0.4074477   -0.1237871   -0.0054024    0.9380286    0.3465157
  -0.1170620    0.4015990   -0.1095713   -0.5947659    0.7803099    0.1933132
  -0.1181123    0.4000640   -0.1054235   -0.8361673    0.5387417   -0.1028674
  -0.0752117    0.4167006   -0.1532368    0.3132284    0.8519399    0.4196265
  -0.0170344    0.4264092   -0.1480542    0.4409340   -0.6864718    0.5782159
  -0.0175421    0.4249485   -0.1499026    0.3471267   -0.8170536    0.4603547
  -0.0123527    0.4344813   -0.1685390   -0.1319216    0.3373519   -0.9320893
  -0.0139004    0.4304404   -0.1666020   -0.6383841   -0.3401177   -0.6904967
  -0.0201572    0.4338571   -0.1623483   -0.6723506   -0.2872064   -0.6822442
  -0.0114029    0.4360421   -0.1663202    0.4607803    0.8233851   -0.3312378
  -0.0138490    0.4264717   -0.1501518    0.4271550   -0.6816494    0.5940477
  -0.0102265    0.4271292   -0.1522406    0.5695895   -0.4223084    0.7051407
  -0.0083450    0.4303948   -0.1531260    0.6628774   -0.0695611    0.7454896
  -0.0055301    0.4327561   -0.1558520    0.7898862    0.4961297    0.3604651
  -0.0081301    0.4350211   -0.1612665    0.6183123    0.7767428   -0.1198354
  -0.0197894    0.4311380   -0.1609023   -0.6754155   -0.4552234   -0.5801599
  -0.0604869    0.4172034   -0.1688785   -0.9391976    0.3245256    0.1122096
  -0.0603538    0.4181196   -0.1706410   -0.8514714    0.4988801   -0.1616016
  -0.0589994    0.4186935   -0.1720121   -0.6692731    0.6225990   -0.4055170
  -0.0694201    0.4152886   -0.1570089    0.4470696    0.8849246    0.1305267
  -0.0660040    0.4141369   -0.1583476    0.2057269    0.9158497   -0.3448126
  -0.0651834    0.4088018   -0.1626214   -0.3485256    0.1175402   -0.9299001
  -0.0648109    0.4109474   -0.1624045   -0.0843810    0.3825353   -0.9200797
  -0.0615529    0.4112113   -0.1650626   -0.8484509    0.3181516   -0.4229783
  -0.0644677    0.4074153   -0.1635097   -0.6047926    0.1273083   -0.7861415
  -0.0617462    0.4132614   -0.1708752   -0.9683362    0.2381704    0.0748325
  -0.0625733    0.4099249   -0.1724432   -0.9884111    0.1112143    0.1033193
  -0.0620259    0.4092407   -0.1678876   -0.9832930    0.1818918    0.0070964
  -0.0573149    0.4189353   -0.1741215   -0.3932538    0.5520170   -0.7352746
  -0.0560272    0.4184322   -0.1742719    0.1597867    0.3569758   -0.9203458
  -0.0407241    0.4168625   -0.1674402    0.3578214    0.0215517   -0.9335413
  -0.0542532    0.4175332   -0.1741053    0.3649901    0.2467218   -0.8977252
  -0.0490188    0.4184362   -0.1712573    0.4494634    0.0768470   -0.8899872
  -0.0400872    0.4222924   -0.1675991    0.3715793    0.0487331   -0.9271213
  -0.0373208    0.4174508   -0.1664532    0.2491268    0.0044140   -0.9684608
  -0.0367684    0.4204127   -0.1663650    0.4172964    0.1021358   -0.9030127
  -0.0341620    0.4185603   -0.1610337    0.9748762    0.1874934    0.1202608
  -0.0337228    0.4172671   -0.1630679    0.9581176    0.2861911   -0.0102647
  -0.0337490    0.4168249   -0.1649923    0.7843845    0.2623679   -0.5620534
  -0.0343573    0.4207613   -0.1526545    0.7841302   -0.6183204   -0.0531013
  -0.0345593    0.4179693   -0.1590372    0.9594277   -0.0725160    0.2724700
  -0.0365603    0.4173988   -0.1546786    0.8488469   -0.4807253    0.2199138
  -0.0367697    0.4138792   -0.1575682    0.8333386   -0.3007463    0.4637872
  -0.0224930    0.4257214   -0.1537017   -0.3171964   -0.7240369   -0.6125006
  -0.0213971    0.4267054   -0.1554173   -0.5183689   -0.5991788   -0.6101463
  -0.0209201    0.4254949   -0.1545856   -0.4431762   -0.6982367   -0.5621924
  -0.0170993    0.4289471   -0.1624377   -0.6382823   -0.5264497   -0.5616462
  -0.0146143    0.4253323   -0.1611659   -0.6241056   -0.6802957   -0.3843044
  -0.0151195    0.4248529   -0.1580751   -0.4118358   -0.8745145   -0.2561557
  -0.0188017    0.4241877   -0.1541808   -0.2982599   -0.8702037   -0.3921564
  -0.0515490    0.3867009   -0.1553716    0.6082180   -0.3507840    0.7120544
  -0.0524724    0.3784483   -0.1582394    0.7899906   -0.4356365    0.4314346
  -0.0397910    0.4004801   -0.1594665    0.6032195   -0.2170843    0.7674638
  -0.0407626    0.3959815   -0.1600005    0.5778350   -0.2883812    0.7635070
  -0.0409836    0.4048473   -0.1570464    0.6888776   -0.3120621    0.6542667
  -0.0390384    0.4108360   -0.1558559    0.7739852   -0.3767202    0.5089486
  -0.0672189    0.3529530   -0.1480577    0.8830574   -0.3787480    0.2770553
  -0.0678942    0.3513249   -0.1514628    0.8811649   -0.4645640   -0.0879131
  -0.1101912    0.3363135   -0.1115255    0.6713822   -0.2253272    0.7060266
  -0.0655443    0.3572611   -0.1564539    0.8660920   -0.4998584    0.0051153
  -0.0603559    0.3639997   -0.1655033    0.3508956   -0.5973748   -0.7211211
  -0.0529163    0.3734933   -0.1690049    0.7740408   -0.6131511   -0.1578181
  -0.1250585    0.3847652   -0.0756075    0.3649397   -0.1636094    0.9165430
  -0.1020083    0.4243535   -0.0808750    0.3915530    0.0151434    0.9200309
  -0.0908560    0.4307208   -0.0878121    0.5537225    0.2758229    0.7856927
  -0.0843386    0.4317793   -0.0939344    0.7044167    0.4090847    0.5800403
  -0.0847033    0.4327832   -0.0948949    0.5008808    0.8179327    0.2830275
  -0.0854875    0.4330886   -0.0967617   -0.0981976    0.9065881   -0.4104330
  -0.0885110    0.4333142   -0.0943434   -0.2575410    0.9256050   -0.2773591
  -0.0950474    0.4321921   -0.0898025   -0.3917109    0.9077980   -0.1498843
  -0.0983778    0.4307664   -0.0878279   -0.4951448    0.8683963   -0.0268227
  -0.1017421    0.4282475   -0.0860661   -0.7100020    0.6963827   -0.1046342
  -0.1098848    0.4190312   -0.0797397   -0.6936154    0.6704124    0.2635240
  -0.1190039    0.4064872   -0.0769695   -0.7397249    0.5048108    0.4449417
  -0.1235067    0.3955805   -0.0857454   -0.9263223    0.2882795   -0.2425323
  -0.0207285    0.4243736   -0.1529426   -0.3140369   -0.8516648   -0.4195806
  -0.0151762    0.4236118   -0.1544860   -0.0403548   -0.9990973   -0.0132721
  -0.0141140    0.4249041   -0.1523342    0.3217784   -0.8098747    0.4904708
  -0.1152773    0.4093833   -0.1257782   -0.5027512    0.8159329    0.2854729
  -0.1172758    0.4049266   -0.1190662   -0.7744725    0.6090304    0.1710973
  -0.1198020    0.3969658   -0.1081364   -0.8910579    0.4010094    0.2126200
  -0.1186425    0.3978520   -0.1064234   -0.9177297    0.3874035    0.0876968
  -0.1202144    0.3933653   -0.1058583   -0.9751821   -0.2109201    0.0673242
  -0.1204923    0.3929337   -0.0981681   -0.8410003   -0.4781629   -0.2531378
  -0.0724089    0.4196874   -0.1605095    0.7653512    0.5405816    0.3492980
  -0.0986514    0.4277778   -0.1509189   -0.2361351    0.8503123    0.4703289
  -0.0079836    0.4296813   -0.1695057    0.1271254    0.0921982   -0.9875923
  -0.0084501    0.4319611   -0.1687604    0.4229909    0.4559342   -0.7830726
  -0.0089097    0.4263856   -0.1687034   -0.3195892   -0.2842532   -0.9039153
  -0.0114580    0.4262204   -0.1672504   -0.5926318   -0.4372572   -0.6764567
  -0.0094825    0.4343719   -0.1674130    0.5030501    0.6822969   -0.5304824
  -0.0079987    0.4339967   -0.1650672    0.6515415    0.7118741   -0.2621621
  -0.0048565    0.4257745   -0.1571760    0.6020023   -0.4044517    0.6884854
  -0.0066692    0.4334771   -0.1626611    0.6885114    0.7053903   -0.1684535
  -0.0029377    0.4302690   -0.1596485    0.9082341    0.4031491    0.1121675
  -0.0626511    0.4104491   -0.1748101   -0.8801112    0.3559584   -0.3141623
  -0.0687153    0.4149167   -0.1588310    0.5869192    0.7716056   -0.2452564
  -0.0692448    0.4124859   -0.1624930    0.5974028    0.3567499   -0.7182196
  -0.0686112    0.4096451   -0.1621554    0.0630038   -0.1269745   -0.9899030
  -0.0676416    0.4065005   -0.1616190   -0.3404267   -0.2465451   -0.9073727
  -0.0629841    0.4058485   -0.1648985   -0.8525332    0.0842161   -0.5158437
  -0.0654410    0.4046983   -0.1623912   -0.6496760   -0.2499416   -0.7179487
  -0.0632422    0.4034798   -0.1767077   -0.9728887    0.0395857   -0.2278608
  -0.0630634    0.4070080   -0.1759556   -0.9317240    0.1636889   -0.3241856
  -0.0636464    0.4027006   -0.1637469   -0.9589584   -0.0175525   -0.2830029
  -0.0595144    0.4101558   -0.1782939   -0.1916514    0.4324592   -0.8810498
  -0.0383984    0.4115198   -0.1671134    0.2968384    0.1281745   -0.9462866
  -0.0447347    0.4156254   -0.1692752    0.4397748    0.0861364   -0.8939679
  -0.0413541    0.4133914   -0.1679779    0.3904416    0.1279730   -0.9116898
  -0.0501939    0.4149204   -0.1723326    0.4858535    0.1528238   -0.8605761
  -0.0579835    0.4096522   -0.1783946    0.2956881    0.3270841   -0.8975436
  -0.0523009    0.4111226   -0.1745682    0.5006327    0.2535940   -0.8276817
  -0.0349957    0.4162184   -0.1661559    0.3552179    0.1068579   -0.9286558
  -0.0360335    0.4139743   -0.1664010    0.1739006    0.0619241   -0.9828143
  -0.0339708    0.4160329   -0.1607648    0.8684003   -0.0841057    0.4886789
  -0.0330851    0.4148738   -0.1626024    0.9536968    0.1489315    0.2613081
  -0.0323571    0.4126262   -0.1650081    0.9310626    0.2675479   -0.2480736
  -0.0332608    0.4127487   -0.1656900    0.5277458    0.1783754   -0.8304617
  -0.0384233    0.4059388   -0.1591033    0.6621937   -0.2055958    0.7205761
  -0.0112272    0.4239977   -0.1641847   -0.4680799   -0.8122917   -0.3479704
  -0.0117437    0.4234988   -0.1604589   -0.3541949   -0.9297590   -0.1004700
  -0.0096086    0.4229992   -0.1586297   -0.0323005   -0.9710405    0.2367215
  -0.0477866    0.3818759   -0.1646287    0.6966600   -0.6013345    0.3912309
  -0.0366570    0.3943389   -0.1639251    0.6178043   -0.3978749    0.6782429
  -0.0372769    0.3912139   -0.1656937    0.6618264   -0.5636602    0.4942398
  -0.0488172    0.3803282   -0.1663543    0.7243676   -0.6724658    0.1519254
  -0.0382225    0.3964645   -0.1616519    0.5550416   -0.2833559    0.7820730
  -0.0375349    0.4002492   -0.1611546    0.6102708   -0.1951513    0.7677796
  -0.0702634    0.3467756   -0.1502967    0.8781776   -0.4723543   -0.0754027
  -0.0762748    0.3349787   -0.1440034    0.8878324   -0.3571981    0.2901090
  -0.0748604    0.3378165   -0.1482933    0.8917777   -0.4462243   -0.0749431
  -0.0682391    0.3521100   -0.1552434    0.8759017   -0.4745134   -0.0873687
  -0.0706808    0.3472023   -0.1541785    0.8629979   -0.4853029   -0.1404125
  -0.0839938    0.3182194   -0.1414204    0.9016033   -0.3917033    0.1835213
  -0.0939590    0.2966489   -0.1387164    0.7802217   -0.2732568    0.5626587
  -0.1146764    0.2621123   -0.1305930    0.7021495   -0.6471687    0.2969154
  -0.1193152    0.2605754   -0.1261130    0.6271857   -0.3981787    0.6693966
  -0.1339529    0.3481419   -0.0824093    0.0575631   -0.2630269    0.9630697
  -0.1278323    0.2706665   -0.1156476    0.1447343   -0.4171165    0.8972546
  -0.1319853    0.2858990   -0.1090980    0.1065752   -0.3657345    0.9245972
  -0.1354796    0.3063888   -0.0999324   -0.5647124   -0.3540164    0.7455013
  -0.1357701    0.3166410   -0.0957297   -0.4575056   -0.3811556    0.8033735
  -0.1323410    0.3301824   -0.0906439    0.5277693   -0.3537422    0.7722215
  -0.0630426    0.3598516   -0.1629866    0.8246294   -0.5650494    0.0265619
  -0.0664158    0.3555739   -0.1591237    0.8542858   -0.5191204    0.0266425
  -0.0557826    0.3725998   -0.1711221   -0.0170342   -0.5398400   -0.8415953
  -0.0716688    0.3571171   -0.1607690   -0.6265336    0.0314104   -0.7787612
  -0.0625304    0.3657588   -0.1656382   -0.2400129   -0.2941049   -0.9251465
  -0.0685008    0.3554441   -0.1617500   -0.2668147   -0.1734336   -0.9480141
  -0.0668328    0.3547408   -0.1618998    0.5063843   -0.5587610   -0.6567809
  -0.0600520    0.3696173   -0.1675802   -0.3719639   -0.3257384   -0.8692165
  -0.0478794    0.3811049   -0.1719879    0.6313199   -0.7525910   -0.1871952
  -0.0514188    0.3817260   -0.1767739    0.1646542   -0.6832227   -0.7114040
  -0.1166597    0.4063614   -0.0756850   -0.0649984    0.1702900    0.9832479
  -0.1279225    0.3862320   -0.0756752   -0.9216175    0.2018031    0.3315066
  -0.1063221    0.4214897   -0.0799918   -0.2665623    0.5644326    0.7812557
  -0.1114865    0.4159885   -0.0781663   -0.2907202    0.4559951    0.8411601
  -0.1001566    0.4273507   -0.0824822   -0.1452540    0.6067330    0.7815218
  -0.0970395    0.4293171   -0.0838797    0.2418867    0.4712237    0.8481975
  -0.0910666    0.4320204   -0.0887930    0.3214427    0.7427004    0.5874272
  -0.0942958    0.4308259   -0.0860576    0.0897978    0.8282590    0.5531035
  -0.0876570    0.4321317   -0.0912255    0.4825439    0.6414293    0.5964226
  -0.0879234    0.4329945   -0.0923437    0.2404676    0.9179392    0.3155361
  -0.0913070    0.4327801   -0.0899998    0.0314295    0.9490677    0.3135007
  -0.0980963    0.4300526   -0.0846570   -0.1953091    0.8309968    0.5208634
  -0.1015288    0.4273771   -0.0830972   -0.4529198    0.7564358    0.4718776
  -0.1213640    0.3914534   -0.0936702   -0.6316783   -0.5476201   -0.5487210
  -0.1240864    0.3870547   -0.0881466   -0.8236908   -0.0132819   -0.5668837
  -0.1277151    0.3791787   -0.0843850   -0.8073433    0.1039812   -0.5808482
  -0.0069100    0.4241931   -0.1576141    0.2808961   -0.7617442    0.5838178
  -0.1134135    0.4099462   -0.1346813   -0.8906944    0.1922758   -0.4119386
  -0.1177707    0.4018816   -0.1266038   -0.9548492    0.0456239   -0.2935670
  -0.1198584    0.3979384   -0.1174401   -0.9911515   -0.0135943   -0.1320372
  -0.1203465    0.3951876   -0.1087306   -0.9932596    0.1146701    0.0169174
  -0.1200894    0.3933411   -0.1081203   -0.5094220   -0.8513441   -0.1253097
  -0.1133083    0.3943488   -0.1050774    0.0079905   -0.9619945   -0.2729519
  -0.0716992    0.4178049   -0.1627337    0.9885849    0.1500020   -0.0141137
  -0.0712110    0.4273494   -0.1659396    0.7965481    0.0759297    0.5997882
  -0.0770187    0.4316915   -0.1630750    0.4323806    0.3436112    0.8336536
  -0.1027068    0.4226630   -0.1482274   -0.8597714    0.3959635   -0.3224998
  -0.0894568    0.4338612   -0.1682158   -0.8398301   -0.0174818   -0.5425678
  -0.0875666    0.4371570   -0.1634013   -0.4419642    0.8865840    0.1365154
  -0.0794329    0.4364067   -0.1645304    0.1880040    0.5360376    0.8229934
  -0.0070330    0.4296957   -0.1689351    0.6254842    0.1976609   -0.7547845
  -0.0074413    0.4273460   -0.1692283    0.2632420   -0.1469503   -0.9534722
  -0.0069630    0.4311853   -0.1680919    0.7239541    0.4419467   -0.5296920
  -0.0095654    0.4252906   -0.1678459   -0.3493108   -0.7012752   -0.6214459
  -0.0071736    0.4250185   -0.1684492    0.1326312   -0.5163303   -0.8460567
  -0.0064341    0.4319245   -0.1656462    0.7130203    0.6215988   -0.3243718
  -0.0055229    0.4235081   -0.1589518    0.2496113   -0.7658392    0.5926083
  -0.0036027    0.4232544   -0.1602431    0.4487587   -0.6923698    0.5650130
  -0.0028286    0.4243917   -0.1601279    0.8192403   -0.3316399    0.4678250
  -0.0051656    0.4316619   -0.1635364    0.7158468    0.6338239   -0.2929687
  -0.0039175    0.4297630   -0.1643015    0.7879379    0.4942770   -0.3672114
  -0.0024403    0.4239367   -0.1616136    0.9676712   -0.2515980   -0.0176312
  -0.0023270    0.4288168   -0.1615662    0.9717749    0.2218359   -0.0802642
  -0.0029475    0.4292788   -0.1627278    0.8323274    0.4307375   -0.3488499
  -0.0607146    0.4068066   -0.1792143   -0.6405921    0.2865470   -0.7124132
  -0.0720580    0.4157781   -0.1651324    0.8491719   -0.2079449   -0.4854545
  -0.0725087    0.4116585   -0.1639326    0.3654004   -0.3072679   -0.8786746
  -0.0704750    0.4075081   -0.1618648    0.0959954   -0.4209449   -0.9019924
  -0.0706006    0.3948732   -0.1518241   -0.5122004   -0.4831879   -0.7100565
  -0.0674243    0.3927168   -0.1535108   -0.8300694   -0.2035064   -0.5192013
  -0.0625517    0.3924022   -0.1771995   -0.8890898   -0.1617473   -0.4282021
  -0.0618806    0.4034457   -0.1788011   -0.7707858    0.0548228   -0.6347312
  -0.0609520    0.3993310   -0.1795425   -0.6955608   -0.1266096   -0.7072236
  -0.0627111    0.3826912   -0.1672672   -0.8996492   -0.1472185   -0.4110450
  -0.0597891    0.4066864   -0.1797110   -0.0962363    0.3135105   -0.9446956
  -0.0388283    0.4039672   -0.1689184    0.3879832    0.2494368   -0.8872713
  -0.0456955    0.4117080   -0.1703382    0.4559226    0.2025130   -0.8666736
  -0.0334681    0.4051718   -0.1667461    0.2641935    0.2204147   -0.9389458
  -0.0338462    0.4092820   -0.1663734    0.2795091    0.0989531   -0.9550303
  -0.0550342    0.4082887   -0.1772591    0.4736613    0.2855581   -0.8331276
  -0.0584554    0.4063754   -0.1795775    0.2958110    0.2859224   -0.9114517
  -0.0493204    0.4089161   -0.1734855    0.5110415    0.2773697   -0.8135740
  -0.0335193    0.4132972   -0.1617912    0.7870164   -0.0559896    0.6143861
  -0.0314191    0.4082310   -0.1648251    0.9261955    0.0945198    0.3650040
  -0.0314309    0.4086997   -0.1655559    0.7816091    0.2156236   -0.5853150
  -0.0350458    0.4015527   -0.1629230    0.5992426   -0.2649938    0.7554380
  -0.0344363    0.4048301   -0.1623917    0.6193183   -0.1747857    0.7654376
  -0.0322322    0.4080803   -0.1635962    0.7182120   -0.0760826    0.6916524
  -0.0328522    0.4111724   -0.1627393    0.7371919   -0.0529741    0.6736036
  -0.0081130    0.4230537   -0.1648095   -0.2317543   -0.9205076   -0.3145721
  -0.0067369    0.4223870   -0.1626351   -0.1235548   -0.9885537   -0.0865781
  -0.0052554    0.4223225   -0.1610628    0.0922234   -0.9680413    0.2332185
  -0.0419685    0.3853945   -0.1678756    0.6123537   -0.7695304    0.1812344
  -0.0365421    0.3968606   -0.1626575    0.6204869   -0.2703397    0.7361470
  -0.0311325    0.3985308   -0.1675997    0.7942126   -0.3328535    0.5083650
  -0.0349669    0.3921937   -0.1683322    0.7294750   -0.5867731    0.3515160
  -0.0730676    0.3426148   -0.1531133    0.8570626   -0.4873635   -0.1670941
  -0.0782820    0.3299519   -0.1464325    0.8931414   -0.4454250   -0.0624103
  -0.0765387    0.3338453   -0.1471879    0.9101618   -0.4098210   -0.0604336
  -0.0724700    0.3458380   -0.1591310    0.5619592   -0.4635045   -0.6851025
  -0.0770013    0.3341466   -0.1509457    0.8990383   -0.4202769   -0.1228716
  -0.0691692    0.3506146   -0.1579509    0.8678521   -0.4945119   -0.0478611
  -0.0718292    0.3460730   -0.1566770    0.8454050   -0.5165645   -0.1358365
  -0.0926524    0.3041888   -0.1480787    0.3597179   -0.3118832   -0.8793929
  -0.0828010    0.3227995   -0.1503492    0.7618433   -0.4988299   -0.4132353
  -0.0922787    0.2979831   -0.1419612    0.9487685   -0.3131125   -0.0424141
  -0.0963879    0.2840122   -0.1416068    0.9214750   -0.3836908    0.0605415
  -0.0984781    0.2803661   -0.1404416    0.8326450   -0.4967230    0.2448849
  -0.1208074    0.2593163   -0.1261047    0.2632263   -0.8617766    0.4336509
  -0.1207391    0.2588610   -0.1308387    0.0959609   -0.9535209   -0.2856385
  -0.1171269    0.2608020   -0.1338270    0.1523460   -0.8012906   -0.5785534
  -0.1110451    0.2665028   -0.1377409    0.0117577   -0.4310893   -0.9022327
  -0.1034616    0.2742677   -0.1396518    0.7201058   -0.6759624   -0.1565964
  -0.1254220    0.2634124   -0.1200815    0.1267148   -0.6318980    0.7646230
  -0.1355866    0.3437913   -0.0856160   -0.9918193    0.0642906    0.1102776
  -0.1339380    0.3345429   -0.0881999    0.3601923   -0.3463709    0.8661921
  -0.1347719    0.3431952   -0.0839819   -0.3603982   -0.2995878    0.8833800
  -0.1317201    0.2815136   -0.1109975   -0.3331430   -0.4332596    0.8374377
  -0.1311707    0.2712940   -0.1168128   -0.7466874   -0.4260342    0.5108354
  -0.1281742    0.2653946   -0.1192787   -0.3624204   -0.5991975    0.7138724
  -0.1333404    0.2860873   -0.1095452   -0.7747118   -0.3419203    0.5318949
  -0.1359634    0.3173787   -0.0971780   -0.9989451    0.0083668   -0.0451529
  -0.1353996    0.3019652   -0.1037072   -0.9968540   -0.0555635   -0.0565223
  -0.1346228    0.3299045   -0.0895353    0.0115869   -0.3841162    0.9232121
  -0.1355684    0.3297936   -0.0902523   -0.8690877   -0.1869756    0.4579594
  -0.1353936    0.3392139   -0.0884616   -0.9876581    0.0770339   -0.1363720
  -0.0560722    0.3813265   -0.1748952   -0.4985025   -0.3845701   -0.7769177
  -0.0619897    0.3712905   -0.1673907   -0.5692583   -0.1653080   -0.8053684
  -0.0955682    0.3237959   -0.1333248   -0.7917952    0.2818122   -0.5418877
  -0.0700404    0.3696917   -0.1490319   -0.8561264    0.2057623   -0.4740354
  -0.0791561    0.3433605   -0.1548674   -0.7735722    0.2394063   -0.5867459
  -0.0726873    0.3513649   -0.1597743   -0.4221493   -0.0913938   -0.9019075
  -0.0633604    0.3791291   -0.1656373   -0.8985095    0.0955066   -0.4284381
  -0.0738526    0.3462359   -0.1586956   -0.3522851   -0.1011624   -0.9304092
  -0.0410502    0.3866682   -0.1779691    0.5160829   -0.7715957   -0.3718851
  -0.0590515    0.3900822   -0.1796620   -0.4470175   -0.3763723   -0.8114920
  -0.0461136    0.3869892   -0.1815248    0.1612569   -0.3989278   -0.9026920
  -0.1325418    0.3573844   -0.0857342   -0.8297257    0.2365787   -0.5055549
  -0.1223013    0.3851441   -0.0893444   -0.5562614   -0.2465059   -0.7936045
  -0.1054869    0.3930691   -0.1062187   -0.6145329   -0.4650520   -0.6372409
  -0.1158108    0.3892193   -0.0948675   -0.4713587   -0.4867234   -0.7354735
  -0.1180852    0.3779977   -0.0911684   -0.6600858    0.1184030   -0.7418001
  -0.1152555    0.3977764   -0.1286446   -0.4497339   -0.5999769   -0.6616397
  -0.1114077    0.4051949   -0.1361659   -0.1814481   -0.6263940   -0.7580944
  -0.1014993    0.4214713   -0.1510205   -0.5600862   -0.3557504   -0.7481612
  -0.1175450    0.3939686   -0.1212971   -0.3434820   -0.8677339   -0.3592464
  -0.1069227    0.3986884   -0.1171910    0.3005770   -0.9292250   -0.2149286
  -0.1055563    0.3969813   -0.1113162   -0.1974581   -0.8710854   -0.4496894
  -0.0708182    0.4263111   -0.1678322    0.9477729   -0.2046123    0.2446637
  -0.0666215    0.4364387   -0.1692124    0.6028072   -0.1659166    0.7804455
  -0.0718209    0.4404728   -0.1677704    0.2741804    0.1902511    0.9426716
  -0.0973310    0.4142192   -0.1456895   -0.3904355   -0.6691068   -0.6323418
  -0.0822033    0.4373790   -0.1788630   -0.8638659    0.1864992   -0.4679250
  -0.0773156    0.4116060   -0.1655090   -0.2010198   -0.6188524   -0.7593503
  -0.0773414    0.4196672   -0.1720244   -0.4146896   -0.6137051   -0.6718621
  -0.0793436    0.4319535   -0.1810320   -0.7182618   -0.4268405   -0.5494608
  -0.0734920    0.4441774   -0.1756311   -0.3445986    0.9364260    0.0660166
  -0.0727638    0.4444483   -0.1784366   -0.4728001    0.8782555   -0.0716056
  -0.0736696    0.4410618   -0.1933515   -0.8220501    0.3380919   -0.4581784
  -0.0765673    0.4418049   -0.1684936   -0.0734020    0.7243724    0.6854901
  -0.0713424    0.4444023   -0.1732579   -0.2971128    0.9389763    0.1733423
  -0.0065105    0.4273455   -0.1686371    0.5830827    0.0011829   -0.8124119
  -0.0051060    0.4261247   -0.1678048    0.7137076    0.0866277   -0.6950663
  -0.0050967    0.4299119   -0.1661680    0.7619723    0.4383576   -0.4766979
  -0.0064114    0.4236731   -0.1666947    0.1218166   -0.8217003   -0.5567489
  -0.0058091    0.4255564   -0.1682315    0.5184902   -0.3170412   -0.7941365
  -0.0050986    0.4247355   -0.1670254    0.5876160   -0.5506246   -0.5928912
  -0.0034277    0.4223335   -0.1618319    0.6008642   -0.7975700    0.0533321
  -0.0044823    0.4277544   -0.1663914    0.8161114    0.2436414   -0.5240239
  -0.0024919    0.4271384   -0.1633389    0.9471548    0.1099039   -0.3013616
  -0.0036700    0.4232048   -0.1633259    0.6941912   -0.5786455   -0.4280981
  -0.0027727    0.4246355   -0.1633254    0.8843660   -0.3209928   -0.3389106
  -0.0602923    0.4032375   -0.1804663   -0.3057886    0.1879053   -0.9333729
  -0.0745041    0.4131024   -0.1656472    0.4353589   -0.5449049   -0.7166179
  -0.0729430    0.4207708   -0.1717176    0.7154558   -0.5164154   -0.4705722
  -0.0716891    0.4199205   -0.1676458    0.9599554   -0.2388819   -0.1463593
  -0.0841885    0.3955107   -0.1352008   -0.6320683   -0.5565703   -0.5391838
  -0.0775293    0.3841849   -0.1402654   -0.7205187   -0.0359034   -0.6925054
  -0.0693348    0.3877724   -0.1487823   -0.7200007   -0.2383249   -0.6517670
  -0.0685995    0.3818053   -0.1491908   -0.8784220    0.0125778   -0.4777203
  -0.0589191    0.3992211   -0.1814680   -0.3751568    0.0364816   -0.9262432
  -0.0556567    0.3952042   -0.1822444   -0.1745889   -0.0288331   -0.9842192
  -0.0418073    0.4058070   -0.1698772    0.4676142    0.2498649   -0.8478824
  -0.0388250    0.4002898   -0.1701997    0.3731002    0.3632894   -0.8537079
  -0.0360251    0.4027049   -0.1682856    0.2958558    0.3210550   -0.8996627
  -0.0446528    0.4041312   -0.1720211    0.4862030    0.2849129   -0.8260940
  -0.0308326    0.4050290   -0.1663180    0.7940495    0.1860897   -0.5786675
  -0.0333813    0.4014800   -0.1679612    0.2843894    0.3360625   -0.8978779
  -0.0319544    0.4018828   -0.1673312    0.2340122    0.2949574   -0.9264116
  -0.0521055    0.4063177   -0.1762661    0.5032960    0.3053280   -0.8083737
  -0.0582380    0.4030291   -0.1804842    0.1320666    0.2791493   -0.9511225
  -0.0529968    0.4035437   -0.1780399    0.4937854    0.3321060   -0.8036676
  -0.0541064    0.3988210   -0.1805452    0.4328254    0.3235443   -0.8414163
  -0.0480609    0.4052349   -0.1739195    0.5375207    0.2812902   -0.7949511
  -0.0308279    0.4046202   -0.1656757    0.9106012   -0.0284330    0.4123069
  -0.0316343    0.4018605   -0.1653419    0.6973397   -0.2381225    0.6760288
  -0.0055513    0.4227874   -0.1648191    0.2055290   -0.9119229   -0.3551822
  -0.0369749    0.3879838   -0.1728023    0.6828330   -0.7293335    0.0425643
  -0.0318959    0.3959992   -0.1692941    0.9121182   -0.4022862    0.0787797
  -0.0309793    0.3987329   -0.1681024    0.7291885    0.2028036   -0.6535709
  -0.0307085    0.4017663   -0.1671621    0.9440994    0.0508791   -0.3257110
  -0.0309183    0.4015474   -0.1665530    0.9323658   -0.1336880    0.3358891
  -0.0329493    0.3936577   -0.1707820    0.8687963   -0.4927500    0.0488912
  -0.0804557    0.3268469   -0.1496238    0.8479251   -0.4568400   -0.2689241
  -0.0786161    0.3303477   -0.1498963    0.8689416   -0.4525871   -0.2002632
  -0.0813207    0.3297718   -0.1553277    0.4996834   -0.4834943   -0.7187140
  -0.0829374    0.3303397   -0.1553487   -0.3609972   -0.0612108   -0.9305559
  -0.0778203    0.3426377   -0.1567367   -0.5490332    0.0995679   -0.8298486
  -0.0851317    0.3230613   -0.1517054    0.3019435   -0.4728762   -0.8277791
  -0.1030126    0.2789216   -0.1422629   -0.3476068   -0.1019767   -0.9320785
  -0.1008478    0.2997586   -0.1433868   -0.6841972    0.1459366   -0.7145465
  -0.0877487    0.3232246   -0.1523199   -0.5343572   -0.0594391   -0.8431663
  -0.0959964    0.2872046   -0.1447547    0.6398121   -0.3713094   -0.6728817
  -0.0821552    0.3262347   -0.1528117    0.5571461   -0.5517828   -0.6205836
  -0.0985491    0.2805604   -0.1421145    0.7445196   -0.5701486   -0.3473056
  -0.1255730    0.2596357   -0.1257176   -0.6403074   -0.7680430   -0.0107904
  -0.1236223    0.2583270   -0.1283325   -0.2574837   -0.9614360   -0.0966593
  -0.1275011    0.2614854   -0.1231396   -0.5924563   -0.7413674    0.3152299
  -0.1235835    0.2592800   -0.1298612   -0.6146872   -0.6138943   -0.4952712
  -0.1208335    0.2601106   -0.1324183   -0.3016278   -0.6285090   -0.7169359
  -0.1191414    0.2621173   -0.1341730   -0.3715932   -0.2815113   -0.8846863
  -0.1183861    0.2883867   -0.1276237   -0.6635228    0.2412253   -0.7082005
  -0.1241366    0.2635360   -0.1313295   -0.6392530    0.0718171   -0.7656356
  -0.1034158    0.2751554   -0.1412421    0.3645886   -0.5583006   -0.7452353
  -0.1353317    0.3343173   -0.0878937   -0.6675401   -0.2771745    0.6910605
  -0.1325563    0.2782267   -0.1155004   -0.9895264   -0.0950269   -0.1086619
  -0.1300965    0.2664059   -0.1217522   -0.9588246   -0.2748962   -0.0713259
  -0.1296903    0.2657290   -0.1200923   -0.7524953   -0.5371642    0.3810583
  -0.1354299    0.3130903   -0.1009556   -0.8814605    0.1619084   -0.4436362
  -0.1312312    0.2743401   -0.1206940   -0.8662145    0.1246833   -0.4838662
  -0.0988522    0.3779220   -0.1185284   -0.7681704    0.1968774   -0.6092237
  -0.0875843    0.3278764   -0.1510028   -0.8473862    0.2570946   -0.4645847
  -0.0842710    0.3310117   -0.1543900   -0.6997050    0.2077946   -0.6835454
  -0.0751355    0.3466913   -0.1581381   -0.5767213    0.0592786   -0.8147875
  -0.0378493    0.3896953   -0.1777544    0.5450425    0.0699811   -0.8354827
  -0.0346197    0.3911065   -0.1748469    0.8168765   -0.0995699   -0.5681536
  -0.0494100    0.3917258   -0.1819888    0.1202243    0.1255107   -0.9847808
  -0.0455700    0.3896164   -0.1816413    0.3510994    0.3507424   -0.8681642
  -0.1141768    0.3850329   -0.0939805   -0.6750021   -0.1085080   -0.7297933
  -0.1027078    0.4052789   -0.1315802    0.1025297   -0.8656440   -0.4900491
  -0.1047431    0.4140039   -0.1437897    0.0597381   -0.7536009   -0.6546122
  -0.0647273    0.4336780   -0.1720882    0.6991757   -0.5605706    0.4437498
  -0.0704897    0.4250680   -0.1703017    0.8894359   -0.4553112   -0.0399431
  -0.0635276    0.4384775   -0.1706759    0.4073827   -0.1530671    0.9003387
  -0.0631925    0.4365765   -0.1715726    0.4943812   -0.4103222    0.7663047
  -0.0619188    0.4440225   -0.1698251    0.0977366    0.0213271    0.9949838
  -0.0579567    0.4409143   -0.1721800    0.3322800   -0.3641653    0.8700423
  -0.0762586    0.4334392   -0.1870413   -0.6170487   -0.4878654   -0.6174450
  -0.0752575    0.4197277   -0.1720244    0.2154818   -0.6943897   -0.6865788
  -0.0751391    0.4279347   -0.1811693   -0.2029312   -0.7540637   -0.6246654
  -0.0684237    0.4459618   -0.1810375   -0.3240553    0.9458406   -0.0193325
  -0.0695602    0.4455444   -0.1767088   -0.2990581    0.9490393    0.0994420
  -0.0705020    0.4437754   -0.1966867   -0.6444214    0.3565613   -0.6764503
  -0.0668107    0.4463794   -0.1833919   -0.3281450    0.9446184   -0.0041188
  -0.0650706    0.4468354   -0.1978830   -0.3475825    0.7995656   -0.4897768
  -0.0713241    0.4402161   -0.1956901   -0.5930067   -0.2507430   -0.7651608
  -0.0629071    0.4466096   -0.1712656   -0.2202990    0.8490489    0.4801920
  -0.0667753    0.4460225   -0.1744105   -0.2931415    0.9404241    0.1722516
  -0.0043322    0.4257407   -0.1667484    0.7877052   -0.1800349   -0.5891587
  -0.0043356    0.4238809   -0.1652462    0.6411459   -0.5767954   -0.5062006
  -0.0027356    0.4261151   -0.1643443    0.8745056   -0.1509971   -0.4609119
  -0.0723827    0.4271990   -0.1797101    0.5050040   -0.7355778   -0.4515488
  -0.0567577    0.3992055   -0.1814462    0.1817994    0.2822128   -0.9419686
  -0.0538744    0.3952353   -0.1819005    0.3504584    0.3900419   -0.8514965
