NORM_ASCII
3300 3773
   0.0636626    0.1138420   -0.0294341   -0.0554325   -0.8368422   -0.5446305
   0.0643065    0.1307769   -0.0244306    0.0571163    0.2692668   -0.9613704
   0.0631866    0.1269567   -0.0256517   -0.1248940    0.0970199   -0.9874151
   0.0614982    0.1233493   -0.0266207   -0.6196563    0.2412023   -0.7468919
   0.0600127    0.1209801   -0.0249877   -0.9852658   -0.1597259   -0.0611466
   0.0617783    0.1228076   -0.0217706   -0.6125749   -0.4514197    0.6488237
   0.0634573    0.1224593   -0.0206597   -0.2231518    0.7598201    0.6106364
   0.0582232    0.1153105   -0.0252371   -0.8528074   -0.4951981    0.1658263
   0.0663203    0.1217894   -0.0197336   -0.1932090    0.0581648    0.9794321
   0.0624431    0.1235803   -0.0189586   -0.1663427   -0.8364591    0.5221746
   0.0594705    0.1154817   -0.0266601   -0.6411824   -0.7182956   -0.2700678
   0.0647637    0.1345711   -0.0226612    0.2045147    0.3748561   -0.9042437
   0.0617766    0.1131301   -0.0292145   -0.5417041   -0.7294186   -0.4177383
   0.0603312    0.1147517   -0.0291059   -0.7551947   -0.5444012   -0.3651141
   0.0649009    0.1384949   -0.0212110    0.3328994    0.3393892   -0.8797687
   0.0647243    0.1425874   -0.0198882    0.4704967    0.2988456   -0.8302555
   0.0640136    0.1466333   -0.0194891    0.6448835    0.1683819   -0.7455017
   0.0684264    0.1108011   -0.0249162   -0.4659967   -0.8544837   -0.2295748
   0.0729940    0.1072458   -0.0233087   -0.2066786   -0.9747928   -0.0840410
   0.0717035    0.1073197   -0.0229625   -0.3803321   -0.8581859   -0.3447672
   0.0699187    0.1081292   -0.0229968   -0.5708164   -0.7911719   -0.2195806
   0.0684203    0.1099944   -0.0239537   -0.6566909   -0.7210870   -0.2208858
   0.0677293    0.1112605   -0.0239504   -0.7327278   -0.6632283    0.1524407
   0.0746269    0.1094221   -0.0206792    0.3741543   -0.5645721    0.7357084
   0.0730917    0.1094009   -0.0197777   -0.1807754   -0.4804989    0.8581615
   0.0796726    0.1150464   -0.0180437    0.4993519    0.6288509    0.5959817
   0.0771738    0.1145283   -0.0197289   -0.5102465   -0.3711592    0.7758153
   0.0761394    0.1145758   -0.0193989    0.0147109   -0.7801521    0.6254169
   0.1009819    0.1088324   -0.0146007   -0.4552190   -0.1476992    0.8780436
   0.1028939    0.1057909   -0.0139046   -0.1362542   -0.4219834    0.8963062
   0.1042123    0.1091655   -0.0138259   -0.1922750   -0.5937967    0.7813039
   0.1146830    0.1016290   -0.0093491    0.8171671    0.5277189   -0.2318422
   0.1151450    0.1010759   -0.0097709    0.9687993   -0.1162846    0.2188739
   0.1130139    0.0992288   -0.0123114   -0.2356692   -0.9637432    0.1251361
   0.1118579    0.0996100   -0.0147193   -0.2919648   -0.9564101   -0.0060175
   0.1133431    0.1011411   -0.0091171   -0.0730075   -0.9604245    0.2688024
   0.1128504    0.0995719   -0.0111042   -0.2535461   -0.8431263    0.4741860
   0.1184063    0.1110900    0.0057809    0.7581803   -0.6415300    0.1166275
   0.1182795    0.1103837    0.0025450    0.8188874   -0.5208927    0.2410275
   0.1106185    0.1227618    0.0103445    0.9080643    0.2012954    0.3672864
   0.1164993    0.1094715    0.0094127    0.7808381   -0.5516845    0.2931486
   0.1110495    0.1318364    0.0101776    0.7326047    0.6651619   -0.1443951
   0.0695992    0.1301884    0.0101846   -0.6530310    0.4545981   -0.6057154
   0.0728531    0.1291343    0.0071627    0.1488702   -0.9658795    0.2119305
   0.0735366    0.1308923    0.0113613    0.1523118   -0.9379786    0.3114439
   0.0703020    0.1254423    0.0096718    0.0584803   -0.9508154    0.3041877
   0.0681073    0.1274498    0.0129489   -0.8440985   -0.2745780   -0.4605483
   0.0749931    0.1264838   -0.0030185   -0.3208282   -0.8089905   -0.4925480
   0.0701000    0.1259571    0.0000000   -0.3194160   -0.9467097    0.0414017
   0.0798840    0.1275113   -0.0081769   -0.5027025   -0.8371415   -0.2156022
   0.0749931    0.1264838    0.0030185   -0.2667069   -0.8257283    0.4970314
   0.0628247    0.1547354    0.0037017    0.2150662   -0.5333587    0.8180923
   0.0787474    0.1286083    0.0092019   -0.3905487   -0.8725220    0.2935593
   0.0798840    0.1275113    0.0081769   -0.4506322   -0.8711150    0.1951651
   0.1168565    0.1070268   -0.0015803    0.8182556    0.3042902    0.4877143
   0.1148573    0.1076090    0.0000000    0.9431930   -0.3289384    0.0467606
   0.1152038    0.1092230    0.0013330    0.9052639   -0.3598687    0.2258136
   0.1155073    0.1110231    0.0029437    0.7444618   -0.4246198    0.5152423
   0.1157526    0.1054293    0.0000000    0.7246584    0.3159069    0.6124320
   0.1162081    0.1004370   -0.0088185    0.5037721   -0.1401707   -0.8523883
   0.1171497    0.0992786    0.0000000    0.7796864   -0.4458696    0.4396470
   0.1174124    0.0989574   -0.0041158    0.7302730   -0.6822137   -0.0358571
   0.1170314    0.0988496   -0.0060928    0.3653650   -0.9005196   -0.2357389
   0.1164335    0.0993310   -0.0079388    0.6451572   -0.5709141   -0.5077689
   0.1044266    0.1054143   -0.0143237    0.0258898   -0.3504575    0.9362207
   0.1069542    0.1042984   -0.0146609   -0.2229191   -0.4912597    0.8420042
   0.1070529    0.1054219   -0.0144324   -0.6756259   -0.4607366    0.5755445
   0.1108155    0.1012145   -0.0120847   -0.6995133   -0.6233671    0.3494204
   0.1068923    0.1061039   -0.0134430   -0.8147785   -0.4715200    0.3373498
   0.0704187    0.1754244   -0.0259187    0.9799311   -0.1079277    0.1675907
   0.0588126    0.1473219   -0.0694576   -0.0905666   -0.9880864   -0.1244307
   0.0589294    0.1479140   -0.0682106   -0.0128819   -0.0404433    0.9990988
   0.0510657    0.1486135   -0.0685771    0.2651087    0.6348070    0.7257668
   0.0506651    0.1502994   -0.0732708    0.0318511    0.1679810   -0.9852755
   0.0513465    0.1478334   -0.0718504    0.0186261   -0.6980424   -0.7158142
   0.0535072    0.1463361   -0.0688743    0.2129559   -0.9527286   -0.2166980
   0.0848783    0.1857709   -0.0516194   -0.7118345    0.0208906   -0.7020365
   0.0811183    0.1830247   -0.0492180   -0.3497200   -0.3496172   -0.8691742
   0.0977489    0.1947178   -0.0548024    0.4887990    0.2694733   -0.8297347
   0.1001259    0.1898696   -0.0528170    0.7625447   -0.1754930   -0.6226779
   0.0949227    0.2012683   -0.0543912    0.2459324    0.2472356   -0.9372256
   0.0888954    0.1967128   -0.0555068    0.0655716   -0.0162259   -0.9977159
   0.1002328    0.2037235   -0.0491675    0.5177681    0.3137576   -0.7959098
   0.0996893    0.1866717   -0.0514901    0.4691652   -0.8152204    0.3395582
   0.0826988    0.1921661   -0.0538945   -0.0310656   -0.3012693   -0.9530329
   0.0948632    0.1886412   -0.0511676    0.2375453   -0.5601416    0.7936080
   0.0702725    0.1827311   -0.0300843    0.9574459   -0.2417063    0.1577196
   0.1212231    0.1683559    0.0000000    0.9310278    0.3649466    0.0010802
   0.1184882    0.1733431    0.0000000    0.8428724    0.5380921   -0.0047939
   0.1168557    0.1755589    0.0000000    0.8689306    0.4947293   -0.0142295
   0.1140775    0.1821375    0.0000000    0.9103412    0.4137739   -0.0083704
   0.1137190    0.1914481   -0.0060959    0.8964655   -0.2963084   -0.3294707
   0.1136692    0.1919879   -0.0031699    0.9826639   -0.1792193   -0.0474554
   0.1120707    0.1862565    0.0000000    0.9979010    0.0647571   -0.0002422
   0.1140740    0.1923711    0.0000000    0.9669972   -0.2547458   -0.0045774
   0.1050004    0.1873738   -0.0150099    0.3468158   -0.6031872   -0.7182507
   0.1101308    0.1897942   -0.0113473    0.7066000   -0.5734554   -0.4145666
   0.1004438    0.1868882   -0.0157605    0.1135609   -0.3776268   -0.9189679
   0.1208425    0.1680788    0.0032368    0.8466663    0.3663181    0.3859628
   0.0708889    0.1795272   -0.0203356    0.5556807   -0.2065897   -0.8053196
   0.0708076    0.1830109   -0.0199742    0.7377155   -0.4033649   -0.5413618
   0.0546262    0.1355328   -0.0144089   -0.5019398   -0.2463153    0.8290869
   0.0541146    0.1298416   -0.0158456   -0.5384169   -0.3051131   -0.7855019
   0.0530476    0.1431827   -0.0147922   -0.5607165   -0.3109888    0.7673871
   0.0550525    0.1262357   -0.0163931   -0.9544807   -0.2979290   -0.0143139
   0.0490724    0.1493233   -0.0147290   -0.4051694   -0.6980494    0.5903937
   0.0569724    0.1219095   -0.0161621   -0.1768845   -0.9718171   -0.1558310
   0.0598365    0.1219227   -0.0154516   -0.1964027   -0.6311705    0.7503665
   0.0630330    0.1219150   -0.0136906    0.0242412   -0.4683927    0.8831878
   0.0514600    0.1516974   -0.0126770   -0.0981591   -0.8203145    0.5634260
   0.0676113    0.1230827   -0.0161884    0.6446719   -0.7285389    0.2315799
   0.0697041    0.1290296   -0.0157562    0.4755036   -0.3884690    0.7892960
   0.0521115    0.1547413   -0.0084696    0.2066403   -0.9752906   -0.0781534
   0.0727037    0.1251374   -0.0164453   -0.0861141   -0.3968493    0.9138353
   0.0560685    0.1513266   -0.0019677    0.0444824   -0.6441744   -0.7635841
   0.0764127    0.1267181   -0.0154074   -0.1163191   -0.5330706    0.8380367
   0.0770957    0.1297166   -0.0120032   -0.3717961   -0.8503155    0.3724665
   0.0789020    0.1281563   -0.0129471   -0.5262061   -0.7537749    0.3936122
   0.0548359    0.1481894    0.0000000   -0.4580596   -0.8864434    0.0663284
   0.0596195    0.1527461    0.0030278    0.0916286   -0.6119411    0.7855777
   0.0560685    0.1513266    0.0019677    0.0764562   -0.5213309    0.8499227
   0.1198556    0.1623901    0.0071439    0.8959379   -0.2968212    0.3304429
   0.1194932    0.1621652    0.0057539    0.5686659   -0.7261119   -0.3864978
   0.1191823    0.1651352    0.0068068    0.6750549    0.2525368    0.6931998
   0.1168326    0.1593445    0.0075206    0.4387046   -0.8215973   -0.3640277
   0.0633534    0.1559266    0.0110591    0.0701302   -0.5538683   -0.8296455
   0.0593444    0.1545446    0.0109937    0.0658039   -0.5569752   -0.8279182
   0.0596592    0.1569909    0.0078921    0.3385063   -0.9382992    0.0707679
   0.1153985    0.1566918    0.0092974    0.3489263   -0.5987740   -0.7209162
   0.0920447    0.1119524   -0.0186391    0.2594981   -0.3882548    0.8842618
   0.0918277    0.1125416   -0.0185080    0.6296078    0.2761497    0.7261786
   0.0893590    0.1141482   -0.0177949   -0.6474385    0.0801010    0.7578966
   0.0852746    0.1143228   -0.0203994   -0.6504264   -0.4080142    0.6406793
   0.0839977    0.1147321   -0.0202611    0.4096693   -0.6721110    0.6167965
   0.0933217    0.1115431   -0.0187774   -0.4496583   -0.2029562    0.8698369
   0.0954526    0.1133179   -0.0159641    0.0694438    0.9410948   -0.3309353
   0.0980276    0.1123793   -0.0157129    0.5579410    0.7640233    0.3239911
   0.0992542    0.1113973   -0.0159678    0.0174712    0.0858004    0.9961591
   0.1012574    0.1100073   -0.0160519   -0.1630752    0.1284168    0.9782206
   0.0668696    0.1542381   -0.0171941    0.8892014   -0.4467123   -0.0988381
   0.0628048    0.1501141   -0.0216064    0.7107224   -0.3041916   -0.6343036
   0.0620438    0.1521455   -0.0253682    0.4395003   -0.8833941   -0.1626482
   0.0671206    0.1541679   -0.0222141    0.7149754   -0.6668190    0.2101490
   0.0771728    0.1823956   -0.0483412    0.2483085   -0.5250834   -0.8140211
   0.0663426    0.1728436   -0.0501410    0.6479724   -0.4101141   -0.6418241
   0.0694192    0.1803630   -0.0523669    0.6010187   -0.4036098   -0.6898374
   0.0670219    0.1635666   -0.0443329    0.5837650   -0.3969312   -0.7082824
   0.0644815    0.1662211   -0.0483904    0.6224146   -0.4207005   -0.6600085
   0.0677838    0.1522807   -0.0360390    0.5757926   -0.6257401   -0.5262245
   0.0640792    0.1508966   -0.0386486    0.2740472   -0.8192921   -0.5036454
   0.0665154    0.1519086   -0.0277360    0.1746527   -0.9245191    0.3387637
   0.0637813    0.1131694   -0.0264784   -0.3013809   -0.9376966   -0.1729008
   0.0631085    0.1139041   -0.0254566   -0.7365026   -0.6758251    0.0287115
   0.0596819    0.1315094   -0.0247006    0.0194633    0.2341978   -0.9719941
   0.0580235    0.1276049   -0.0245646   -0.6322465    0.2155590   -0.7441765
   0.0581799    0.1249015   -0.0231713   -0.6919147   -0.5240073    0.4966592
   0.0622730    0.1267869   -0.0222510   -0.9373443    0.0276423    0.3473061
   0.0631298    0.1264317   -0.0185911   -0.9819871    0.1771104   -0.0658277
   0.0603981    0.1239864   -0.0168748   -0.6866417   -0.5521522   -0.4729178
   0.0667874    0.1202850   -0.0185828   -0.4439240    0.8328877   -0.3304989
   0.0599044    0.1163884   -0.0203127   -0.8262460   -0.2205620    0.5183338
   0.0694119    0.1219533   -0.0179828   -0.2194415    0.1287258    0.9670962
   0.0692441    0.1243442   -0.0175439    0.1784122   -0.4332137    0.8834563
   0.0600122    0.1147357   -0.0209362   -0.6129643   -0.6679651    0.4220158
   0.0609392    0.1152394   -0.0236830   -0.3976647   -0.8554885   -0.3316659
   0.0621622    0.1151352   -0.0251620   -0.5510747   -0.8262920   -0.1164396
   0.0638310    0.1217426   -0.0162059    0.1155325   -0.9589922    0.2588170
   0.0601467    0.1357469   -0.0240592    0.2899101    0.1449557   -0.9460127
   0.0600311    0.1400699   -0.0234889    0.4413489    0.0652104   -0.8949630
   0.0595859    0.1443795   -0.0235007    0.4399536   -0.0536275   -0.8964178
   0.0588561    0.1485194   -0.0244955    0.4324875   -0.4343014   -0.7901499
   0.0665405    0.1128533   -0.0238475    0.1858573   -0.9695462    0.1594906
   0.0645368    0.1115383   -0.0248771    0.1782523   -0.9275399   -0.3284751
   0.0695344    0.1114190   -0.0203398   -0.6713381   -0.2760376    0.6878288
   0.0674032    0.1135503   -0.0234627   -0.0473399   -0.5726718    0.8184168
   0.0739239    0.1158172   -0.0184842   -0.1006282   -0.5561332    0.8249787
   0.0728216    0.1158209   -0.0192786   -0.6212478   -0.2061942    0.7559994
   0.0706770    0.1164023   -0.0207621   -0.5828603   -0.3581561    0.7293820
   0.0825723    0.1133973   -0.0178077    0.6015832   -0.7949695    0.0782379
   0.0798101    0.1136742   -0.0171598    0.0237164   -0.8626803    0.5051932
   0.0853372    0.1137029   -0.0185352    0.0253116   -0.9887385    0.1474973
   0.0769976    0.1142534   -0.0169752   -0.0025542   -0.5480429    0.8364463
   0.1047981    0.1080745   -0.0142703   -0.6209476   -0.1269511    0.7735034
   0.1052321    0.1087715   -0.0139503   -0.2457365   -0.2611497    0.9334958
   0.1079911    0.1077943   -0.0133331   -0.6315882   -0.6715147    0.3875105
   0.1140977    0.0995713   -0.0077910   -0.2388654   -0.9487019   -0.2071425
   0.1128203    0.1012539   -0.0093486   -0.6065525   -0.6519361    0.4550531
   0.1132224    0.1012416   -0.0068438   -0.6321306   -0.7469040    0.2062650
   0.1154354    0.1118595    0.0053029    0.2198951   -0.9657695    0.1376063
   0.1144372    0.1110885    0.0079449    0.9093949   -0.4156625   -0.0150218
   0.1084386    0.1233022    0.0168946    0.8305961    0.2252545    0.5092844
   0.1130525    0.1103477    0.0155523    0.6464372   -0.7288186    0.2257042
   0.1079547    0.1334709    0.0158871    0.9604115    0.0843626    0.2655046
   0.1073273    0.1362904    0.0129058    0.9800392    0.1907585   -0.0559851
   0.1153879    0.1112088    0.0126599    0.3142984   -0.9177465    0.2428126
   0.1127405    0.1119823    0.0110654    0.4548686   -0.7290986    0.5113803
   0.1131769    0.1094804    0.0093542    0.9473041   -0.3201993    0.0093484
   0.1137316    0.1092440    0.0085850    0.6981870   -0.1259527    0.7047488
   0.1061682    0.1373028    0.0115182    0.4401416    0.4038747   -0.8019729
   0.0694679    0.1332849    0.0120623   -0.3167514    0.2703807   -0.9091550
   0.0665112    0.1309227    0.0119872   -0.4663887    0.0381360   -0.8837575
   0.0756196    0.1304904    0.0113486   -0.3198541   -0.9465765   -0.0410645
   0.0748355    0.1294039    0.0151743   -0.3496317   -0.7196513   -0.5998831
   0.0717454    0.1328076    0.0143229    0.6934219   -0.7205301   -0.0015405
   0.0699833    0.1250055    0.0136492    0.4605636   -0.8842776   -0.0770350
   0.0658202    0.1248353    0.0141553   -0.2113457   -0.5481386   -0.8092447
   0.0635660    0.1290379    0.0132214   -0.2187890   -0.0643227   -0.9736498
   0.0783493    0.1259195   -0.0035530   -0.3694495   -0.7212552   -0.5859164
   0.0721589    0.1250018    0.0000000   -0.4674638   -0.8837512   -0.0214797
   0.0811919    0.1265325   -0.0075396   -0.5037589   -0.8285549   -0.2443846
   0.0783493    0.1259195    0.0035530   -0.3659372   -0.7581771    0.5396827
   0.0810091    0.1267488   -0.0126719   -0.5409931   -0.7620125    0.3558980
   0.0811919    0.1265325    0.0075396   -0.4892007   -0.8461377    0.2115035
   0.0558731    0.1560190    0.0084009    0.2638788   -0.9645556   -0.0006632
   0.0789020    0.1281563    0.0129471   -0.5016806   -0.7727409   -0.3888291
   0.0770957    0.1297166    0.0120032   -0.5042538   -0.7907782   -0.3469840
   0.0810091    0.1267488    0.0126719   -0.5580294   -0.7492916   -0.3566025
   0.1168020    0.1016909    0.0000000    0.3808040    0.1068948    0.9184562
   0.1169952    0.1007673    0.0000000    0.3808040    0.1068948    0.9184562
   0.1168565    0.1070268    0.0015803    0.9601803    0.2787929   -0.0181180
   0.1171164    0.1091308    0.0045324    0.9592268    0.2732534    0.0722258
   0.1166789    0.1088578    0.0070948    0.8119472    0.1939418    0.5505709
   0.1149776    0.0991169    0.0000000   -0.5042087   -0.8629319   -0.0334977
   0.1148293    0.0987049   -0.0029304   -0.4922452   -0.8654826    0.0929224
   0.1174124    0.0989574    0.0041158    0.7243008   -0.6892592    0.0176092
   0.1148293    0.0987049    0.0029304   -0.5243005   -0.8483360   -0.0737227
   0.1147071    0.0989685   -0.0054060   -0.5976398   -0.7809748    0.1813974
   0.1063674    0.1085238   -0.0120785   -0.6691891    0.7087873    0.2231735
   0.1069161    0.1074808   -0.0103468   -0.7978023   -0.4271213    0.4255336
   0.1083309    0.1075435   -0.0087103   -0.7617457   -0.2923189    0.5781809
   0.1067828    0.1089060   -0.0100461   -0.2111669    0.9761208   -0.0509572
   0.0535635    0.1464289   -0.0680161    0.3742553   -0.6925327    0.6167102
   0.0430308    0.1530633   -0.0723780    0.2983843    0.9409208   -0.1601086
   0.0451734    0.1508106   -0.0687162    0.2735407    0.9350580    0.2254819
   0.0476091    0.1484536   -0.0627192    0.7834248    0.1175571    0.6102671
   0.0475072    0.1440819   -0.0652949    0.2994110   -0.9337178    0.1962755
   0.0408937    0.1512801   -0.0659150    0.5705465    0.8105831   -0.1320291
   0.0441835    0.1506847   -0.0592630    0.7211194    0.5790304   -0.3804085
   0.0442300    0.1461864   -0.0692121   -0.2014310   -0.7611241   -0.6165353
   0.0398614    0.1493647   -0.0696161   -0.3491541   -0.5374135   -0.7676446
   0.0353638    0.1523228   -0.0691337   -0.3009526   -0.5071312   -0.8076172
   0.0371723    0.1538156   -0.0700167    0.3762237    0.5620689   -0.7365693
   0.0757771    0.1889311   -0.0535426    0.1533838   -0.4792516   -0.8641709
   0.0691398    0.1876545   -0.0572438    0.3148010   -0.4646106   -0.8276698
   0.1022854    0.1978543   -0.0487191    0.8101355    0.0710839   -0.5819172
   0.1046650    0.1934040   -0.0472162    0.8806401   -0.1838566   -0.4366575
   0.1048558    0.2059087   -0.0431668    0.7930864    0.1471747   -0.5910614
   0.1041193    0.1919067   -0.0455326    0.3824469   -0.8731416    0.3022551
   0.0882250    0.2111636   -0.0576104    0.5393726   -0.0825313   -0.8380130
   0.0942591    0.2112402   -0.0532467    0.6302795    0.0532931   -0.7745370
   0.0995782    0.2115811   -0.0478959    0.7147876    0.1151827   -0.6897910
   0.0815369    0.2097225   -0.0604582    0.4839670   -0.2062202   -0.8504406
   0.1041628    0.2133398   -0.0421610    0.8087999    0.1235227   -0.5749650
   0.0977252    0.1953108   -0.0468068    0.0036234   -0.8292120    0.5589225
   0.0752487    0.2062515   -0.0625650    0.4684891   -0.2645954   -0.8429159
   0.0704332    0.1886011   -0.0285596    0.7697203   -0.6135855    0.1761916
   0.0710142    0.1852193   -0.0265847    0.8745379   -0.4734459   -0.1050355
   0.0716783    0.1884119   -0.0204753    0.7130595   -0.5711239   -0.4066492
   0.1182857    0.1729599    0.0025761    0.7800102    0.5089483    0.3640819
   0.1163865    0.1752918    0.0030631    0.8264148    0.4623839    0.3213093
   0.1116902    0.1861486    0.0030428    0.9935675    0.1056407    0.0407870
   0.1145495    0.1952635   -0.0104004    0.9356911   -0.3067865   -0.1742535
   0.1147732    0.1963494   -0.0034425    0.9850436   -0.1717096   -0.0143121
   0.1112185    0.1923800   -0.0142344    0.6904330   -0.6030576   -0.3995295
   0.1146554    0.1967864    0.0000000    0.9865488   -0.1634335   -0.0033079
   0.1136692    0.1919879    0.0031699    0.9587030   -0.2839647    0.0158937
   0.1147732    0.1963494    0.0034425    0.9838657   -0.1789081   -0.0002963
   0.1066846    0.1906838   -0.0174952    0.2614619   -0.7036202   -0.6607240
   0.1012377    0.1915812   -0.0173575    0.0522293   -0.5891838   -0.8063092
   0.1169199    0.1711962    0.0064802    0.6234534    0.3817843    0.6823097
   0.1031348    0.1951665   -0.0211899    0.0207572   -0.8246752   -0.5652255
   0.0525372    0.1357269   -0.0171297   -0.2602968   -0.1990056   -0.9447975
   0.0581332    0.1340319   -0.0170294   -0.0996920   -0.0632202   -0.9930079
   0.0516264    0.1457484   -0.0174609   -0.6634906   -0.6278403   -0.4069358
   0.0614557    0.1298612   -0.0172554   -0.6085402    0.1092355   -0.7859685
   0.0580869    0.1283258   -0.0168919   -0.2863418    0.0590488   -0.9563062
   0.0452696    0.1501965   -0.0168976   -0.5888577   -0.8018266   -0.1015909
   0.0473782    0.1515910   -0.0129989   -0.2900657   -0.9195493    0.2651245
   0.0484826    0.1530677   -0.0078033    0.0376777   -0.9971530   -0.0653173
   0.0533493    0.1495139    0.0000663    0.1692184   -0.9693725   -0.1779946
   0.0648784    0.1216189   -0.0185861    0.0904528   -0.3991349    0.9124196
   0.0509751    0.1494244    0.0000000   -0.4739765   -0.6947156   -0.5410328
   0.0702155    0.1177852   -0.0198089   -0.0690905   -0.7093042    0.7015085
   0.0784609    0.1257928   -0.0150288   -0.3551356   -0.4204192    0.8349410
   0.0804889    0.1247221   -0.0148911   -0.4905084   -0.2977955    0.8189746
   0.0521115    0.1547413    0.0084696    0.1964456   -0.9804651   -0.0098606
   0.0484826    0.1530677    0.0078033    0.0272048   -0.9995734    0.0106266
   0.1174507    0.1595782    0.0092181    0.7867188   -0.3403580    0.5150048
   0.1167857    0.1630541    0.0095608    0.5761931    0.1653664    0.8004096
   0.1147589    0.1681151    0.0089073    0.7399969    0.2206616    0.6353842
   0.1152160    0.1575735    0.0111283    0.8419489   -0.3274929    0.4288011
   0.0618438    0.1511118    0.0125572    0.0040834   -0.2291205   -0.9733895
   0.0574981    0.1508282    0.0124653   -0.0563270   -0.2306710   -0.9714001
   0.0533187    0.1501911    0.0136447   -0.1516727   -0.2709629   -0.9505654
   0.0554237    0.1530777    0.0118154   -0.0163790   -0.5952850   -0.8033477
   0.1121263    0.1515348    0.0136045    0.9082043   -0.4114940    0.0764040
   0.1106588    0.1516163    0.0118432    0.3381823   -0.2895915   -0.8954158
   0.0646853    0.1473793    0.0131615   -0.0154427   -0.0821779   -0.9964980
   0.0961371    0.1117813   -0.0171351    0.2413086    0.9168179    0.3181433
   0.0934728    0.1120460   -0.0177811    0.0502909    0.9293691    0.3657102
   0.0907476    0.1126158   -0.0180554   -0.4086724   -0.5832448    0.7020060
   0.0880901    0.1135642   -0.0187947   -0.2477552   -0.8119487    0.5285420
   0.0986552    0.1111844   -0.0158461   -0.0894944    0.7904305    0.6059789
   0.1013966    0.1110480   -0.0151322   -0.2391702    0.6837173    0.6894406
   0.1039050    0.1107509   -0.0140010   -0.5656980   -0.2695386    0.7793168
   0.0624614    0.1506893   -0.0290997   -0.0257846   -0.9964006    0.0807522
   0.0573562    0.1515344   -0.0268322    0.1452447   -0.7367238   -0.6604105
   0.0540398    0.1527825   -0.0288414    0.0381854   -0.9323936   -0.3594219
   0.0601751    0.1524583   -0.0317939   -0.3009402   -0.9529608   -0.0360658
   0.0625716    0.1869602   -0.0610653    0.4784338   -0.3556703   -0.8028697
   0.0607846    0.1741299   -0.0569595    0.7074137   -0.2650208   -0.6552327
   0.0616173    0.1794446   -0.0587063    0.6241212   -0.2532885   -0.7391330
   0.0608641    0.1675430   -0.0521103    0.7289913   -0.3483775   -0.5892409
   0.0555329    0.1854515   -0.0638679    0.5102408   -0.2602088   -0.8197230
   0.0616243    0.1528083   -0.0421495   -0.3455204   -0.8320318   -0.4339801
   0.0601959    0.1560927   -0.0455251    0.0070838   -0.8224692   -0.5687655
   0.0648809    0.1492684   -0.0314837   -0.2139817   -0.9750530   -0.0590206
   0.0651222    0.1537292   -0.0319699   -0.5391283   -0.8327158   -0.1261945
   0.0583051    0.1545566   -0.0348873    0.1491356   -0.9343696   -0.3235925
   0.0633107    0.1112470   -0.0229263   -0.2441812   -0.9569936    0.1566486
   0.0618496    0.1121329   -0.0221169   -0.6875545   -0.7007480    0.1903185
   0.0560381    0.1326512   -0.0236709   -0.0086020    0.1863122   -0.9824529
   0.0539076    0.1315301   -0.0241223   -0.3517271    0.4512532   -0.8201577
   0.0595763    0.1315686   -0.0230212   -0.7706344    0.0974340    0.6297851
   0.0626367    0.1320463   -0.0212157   -0.6308485   -0.0525646    0.7741234
   0.0647109    0.1316234   -0.0184262   -0.9262440   -0.0896305    0.3661126
   0.0625740    0.1161510   -0.0193446   -0.3514751   -0.3411176    0.8718395
   0.0609491    0.1135168   -0.0212279   -0.7586631   -0.5929941    0.2697930
   0.0560554    0.1353464   -0.0243964    0.2097638   -0.0416401   -0.9768650
   0.0563192    0.1390682   -0.0240241    0.0807488   -0.0706336   -0.9942286
   0.0550779    0.1427700   -0.0246864    0.2637117   -0.2549419   -0.9303014
   0.0538965    0.1462727   -0.0259748    0.1834916   -0.1772853   -0.9669027
   0.0663730    0.1127899   -0.0221707    0.6231412   -0.7799644    0.0578845
   0.0686774    0.1182579   -0.0214122   -0.0518155   -0.8899975    0.4530117
   0.0745398    0.1157715   -0.0172227   -0.4713005   -0.3666132    0.8021662
   0.0722440    0.1170662   -0.0186276   -0.5864332   -0.3801520    0.7152486
   0.0857701    0.1204395   -0.0150164   -0.0092216   -0.4715869    0.8817714
   0.0880482    0.1200194   -0.0153153    0.0856361   -0.5965848    0.7979680
   0.0901691    0.1193687   -0.0157919   -0.0367673   -0.6318314    0.7742333
   0.0837900    0.1214094   -0.0148712   -0.2542816   -0.3733617    0.8921558
   0.0917781    0.1177900   -0.0164553   -0.2425647   -0.5494440    0.7995459
   0.0822868    0.1232521   -0.0148792   -0.4613187   -0.2915393    0.8379677
   0.1061172    0.1105671   -0.0120087   -0.6833883   -0.5174852    0.5149656
   0.1094880    0.1071348   -0.0138204    0.3408961    0.8914392   -0.2985397
   0.1090797    0.1073828   -0.0120579   -0.9145884   -0.3562546    0.1913392
   0.1077491    0.1099891   -0.0096978   -0.7111479   -0.6304232    0.3111837
   0.1128444    0.1025717   -0.0059878   -0.7590304   -0.6204097    0.1973945
   0.1110708    0.1049837   -0.0079493   -0.8688289   -0.4947615   -0.0186394
   0.1104045    0.1065228   -0.0078795   -0.8836440   -0.4450918    0.1451433
   0.1101635    0.1056223   -0.0063729   -0.8000738   -0.5971535   -0.0573541
   0.1158922    0.1067042    0.0089137    0.4522524    0.1229022    0.8833815
   0.1073585    0.1098971    0.0224369    0.8232716   -0.5248613    0.2162048
   0.1118431    0.1110315    0.0192903    0.3242033   -0.9208684    0.2165492
   0.1047845    0.1231039    0.0207126    0.6702160    0.1474139    0.7273786
   0.1048995    0.1343949    0.0197857    0.7936221    0.0624652    0.6051959
   0.1088665    0.1109353    0.0175852    0.6051215   -0.6262075    0.4916219
   0.1086300    0.1121038    0.0187395    0.5225497   -0.7183316    0.4592837
   0.1093592    0.1085261    0.0150158    0.8037152   -0.5232858    0.2832207
   0.1109060    0.1111900    0.0145292    0.5789554   -0.8150969    0.0206834
   0.1087698    0.1085471    0.0161049    0.8854687   -0.3627720    0.2904164
   0.1085303    0.1093201    0.0167873    0.8730104   -0.2246725    0.4328684
   0.1118265    0.1119883    0.0132733    0.4274083   -0.9019836   -0.0612195
   0.1083045    0.1428815    0.0138296    0.9285708   -0.2246596   -0.2954393
   0.1067135    0.1444301    0.0159776    0.8904451   -0.1152883    0.4402456
   0.1068644    0.1435749    0.0122196    0.3692920   -0.0587852   -0.9274523
   0.1139590    0.1087666    0.0131884    0.9600225    0.2271491    0.1635848
   0.1142171    0.1074756    0.0114958    0.9554722    0.1877558   -0.2276414
   0.1116947    0.1083447    0.0154282    0.8227739    0.2016412    0.5313982
   0.1131456    0.1056955    0.0095719    0.8638108    0.2520760    0.4362208
   0.1124796    0.1071756    0.0092375    0.8373871   -0.0175747    0.5463277
   0.0678310    0.1401953    0.0130982   -0.1070970    0.0800280   -0.9910226
   0.0669696    0.1354719    0.0126339   -0.3043814    0.1478250   -0.9410100
   0.0623102    0.1333562    0.0138339   -0.3342785    0.0286084   -0.9420400
   0.0727037    0.1251374    0.0164453   -0.4320969   -0.3646063   -0.8248361
   0.0697041    0.1290296    0.0157562    0.5147538   -0.4165767   -0.7493280
   0.0764127    0.1267181    0.0154074   -0.4459336   -0.6094559   -0.6555202
   0.0676113    0.1230827    0.0161884    0.5640801   -0.8178031   -0.1140688
   0.0630330    0.1219150    0.0136906    0.0151456   -0.5680115   -0.8228812
   0.0605551    0.1279789    0.0148220   -0.2349061   -0.0633856   -0.9699492
   0.0813298    0.1242625   -0.0043091   -0.3278404   -0.8400680   -0.4322112
   0.0742375    0.1251520    0.0000000   -0.3569721   -0.9255614   -0.1261234
   0.0826991    0.1256698   -0.0073812   -0.4854508   -0.8338983   -0.2625854
   0.0813298    0.1242625    0.0043091   -0.3361537   -0.8747150    0.3491051
   0.0830526    0.1251988   -0.0126511   -0.5250746   -0.7081067    0.4721034
   0.0826991    0.1256698    0.0073812   -0.5214247   -0.8172419    0.2454221
   0.0830526    0.1251988    0.0126511   -0.5143698   -0.7049679   -0.4883072
   0.0514600    0.1516974    0.0126769   -0.1472837   -0.5975883   -0.7881597
   0.0784609    0.1257928    0.0150288   -0.3242807   -0.4185331   -0.8483349
   0.0804889    0.1247221    0.0148911   -0.4992509   -0.2462658   -0.8307236
   0.0822868    0.1232521    0.0148792   -0.4485569   -0.2745307   -0.8505466
   0.1164335    0.0993310    0.0079388    0.5724769   -0.5501509    0.6079508
   0.1170315    0.0988496    0.0060928    0.3704587   -0.9040917    0.2130225
   0.1162081    0.1004370    0.0088185    0.4525958   -0.2258958    0.8626286
   0.1136280    0.1014506    0.0000000   -0.8541497   -0.5070991    0.1152337
   0.1133136    0.1026489   -0.0026148   -0.7782072   -0.5754339    0.2515339
   0.1133136    0.1026489    0.0026148   -0.8620113   -0.5005517   -0.0799032
   0.1131969    0.1020567   -0.0038617   -0.8166986   -0.5742249    0.0571763
   0.1147071    0.0989685    0.0054060   -0.7008977   -0.7131861   -0.0103955
   0.1131969    0.1020567    0.0038617   -0.8407678   -0.5413959    0.0000507
   0.1126940    0.1032527   -0.0049991   -0.8385393   -0.5426674   -0.0486215
   0.1079449    0.1093316   -0.0086007   -0.3218935    0.7259551    0.6077613
   0.1087254    0.1079868   -0.0069412   -0.6032345    0.7542984    0.2591177
   0.1084648    0.1088800   -0.0081514   -0.3496210    0.7080257    0.6135672
   0.1095057    0.1077049   -0.0097616   -0.7133049    0.6194859   -0.3277703
   0.1111061    0.1072997   -0.0087835   -0.7762015    0.6247555   -0.0848049
   0.0417464    0.1435081   -0.0628830   -0.0573039   -0.9459830    0.3191118
   0.0447751    0.1450462   -0.0594264    0.8014379   -0.5622003    0.2040297
   0.0459009    0.1487941   -0.0563594    0.9270144    0.0731931   -0.3678139
   0.0384043    0.1457307   -0.0656211   -0.5504272   -0.8333855   -0.0499857
   0.0352090    0.1584149   -0.0644759    0.6046031    0.2219270   -0.7649859
   0.0393154    0.1553671   -0.0621904    0.6637025    0.3106329   -0.6804456
   0.0456970    0.1557936   -0.0577399    0.5682826   -0.2119527   -0.7950666
   0.0485061    0.1526187   -0.0549484    0.6609848   -0.3264561   -0.6756667
   0.0437730    0.1614581   -0.0613933    0.4204590   -0.2747995   -0.8646962
   0.0348624    0.1486716   -0.0657715   -0.4609546   -0.8817681   -0.1000296
   0.0306939    0.1499609   -0.0637157   -0.2461812   -0.9586480   -0.1427891
   0.0264964    0.1505677   -0.0614025   -0.3422845   -0.8755350   -0.3409982
   0.0304414    0.1542633   -0.0689159   -0.1465948   -0.7491039   -0.6460289
   0.0306744    0.1579920   -0.0694327    0.3653627   -0.0389151   -0.9300515
   0.0689696    0.2024230   -0.0641335    0.4343792   -0.2807716   -0.8558517
   0.0621989    0.2001808   -0.0660346    0.4015010   -0.2810019   -0.8716851
   0.1084527    0.2014960   -0.0378280    0.9161086   -0.1464353   -0.3732315
   0.1085144    0.1979689   -0.0365901    0.8950581   -0.3729114   -0.2445567
   0.1088998    0.2072700   -0.0365051    0.8987029    0.0457953   -0.4361605
   0.1076175    0.1957834   -0.0355990    0.2964595   -0.9473233    0.1212040
   0.1078453    0.2158099   -0.0359354    0.8870358    0.1395347   -0.4401109
   0.1018526    0.1985125   -0.0342272   -0.0584702   -0.9854529    0.1595741
   0.0805302    0.2208878   -0.0614504    0.5170373    0.0077439   -0.8559278
   0.0865534    0.2223790   -0.0576774    0.5519802    0.0807173   -0.8299413
   0.0922585    0.2239711   -0.0533745    0.6117470    0.1025964   -0.7843721
   0.0975065    0.2262566   -0.0487181    0.7177275    0.0884312   -0.6906860
   0.1021565    0.2268503   -0.0430363    0.8339247    0.0920645   -0.5441449
   0.0743015    0.2187873   -0.0645420    0.4834040   -0.0549811   -0.8736691
   0.1053476    0.2283630   -0.0365621    0.9118623    0.1087248   -0.3958358
   0.0680604    0.2164101   -0.0674822    0.4599180   -0.0976490   -0.8825759
   0.1035860    0.1976117   -0.0257733   -0.0270917   -0.9750384   -0.2203775
   0.0713146    0.1925240   -0.0225874    0.5981165   -0.7378106   -0.3128771
   0.1141213    0.1767528    0.0059361    0.8741028    0.3244874    0.3614585
   0.1137190    0.1914481    0.0060959    0.8753132   -0.3672116    0.3146148
   0.1135482    0.1854611    0.0056455    0.9438382   -0.0858679    0.3190551
   0.1132323    0.1754926    0.0071315    0.8416595    0.2270765    0.4899444
   0.1143531    0.2016657   -0.0177909    0.9173423   -0.2702641   -0.2923019
   0.1117175    0.1966493   -0.0204018    0.7204986   -0.5898245   -0.3646763
   0.1157606    0.2076340   -0.0144893    0.9965449    0.0760032   -0.0334914
   0.1146631    0.2096574   -0.0220168    0.9837784    0.0388761   -0.1751250
   0.1157722    0.2028039   -0.0080093    0.9984290    0.0530676    0.0179838
   0.1156540    0.2032551    0.0000000    0.9995891    0.0286428    0.0011399
   0.1089216    0.1950789   -0.0211741    0.2414421   -0.8401253   -0.4856905
   0.1157722    0.2028039    0.0080093    0.9991346    0.0412309    0.0054747
   0.1145495    0.1952635    0.0104004    0.9374069   -0.3156545    0.1470730
   0.1157606    0.2076340    0.0144893    0.9957279    0.0818396    0.0427581
   0.1093000    0.1966256   -0.0256527    0.2358295   -0.9575953   -0.1655166
   0.0569482    0.1399082   -0.0174285   -0.0625517   -0.1769676   -0.9822269
   0.0619122    0.1379463   -0.0168076   -0.6519172   -0.2695098   -0.7087795
   0.0490897    0.1485627   -0.0196708   -0.1691087   -0.5775954   -0.7986150
   0.0419630    0.1531279   -0.0180309   -0.4524397   -0.8775488   -0.1587655
   0.0427490    0.1515043   -0.0131078   -0.3885069   -0.9090277    0.1507683
   0.0447040    0.1535881   -0.0075769   -0.1412458   -0.9706163   -0.1948167
   0.0480582    0.1520076    0.0000000   -0.3841623   -0.8893521   -0.2479358
   0.0501690    0.1501099   -0.0027529    0.0578316   -0.7605855   -0.6466570
   0.0635067    0.1145845   -0.0194314   -0.0999240   -0.3910279    0.9149385
   0.0657580    0.1136261   -0.0202779    0.3412868   -0.8096545    0.4774756
   0.0501690    0.1501099    0.0027529   -0.1994237   -0.9268101    0.3182031
   0.0447040    0.1535881    0.0075769   -0.1225745   -0.9754912    0.1827357
   0.0473782    0.1515910    0.0129989   -0.3340649   -0.7022295   -0.6287084
   0.0427490    0.1515043    0.0131078   -0.3006136   -0.9109773   -0.2824036
   0.1139741    0.1601070    0.0119056    0.6737371    0.0944145    0.7329149
   0.1144716    0.1666286    0.0104249    0.9366656   -0.0300914    0.3489299
   0.1098588    0.1602106    0.0142484    0.9165732   -0.3164912    0.2443910
   0.1103856    0.1538342    0.0150261    0.6533451   -0.0657287    0.7542015
   0.0610942    0.1450157    0.0134522   -0.0695551   -0.1026025   -0.9922877
   0.0570621    0.1442265    0.0138420   -0.1142795   -0.1163672   -0.9866098
   0.0530476    0.1431827    0.0147922   -0.5696435   -0.2757215   -0.7742635
   0.0490724    0.1493233    0.0147290   -0.4961741   -0.3997203   -0.7707366
   0.0637056    0.1378288    0.0133014   -0.1896526    0.0090544   -0.9818095
   0.0957129    0.1158422   -0.0159537   -0.3953763   -0.4516238    0.7998210
   0.0975786    0.1152258   -0.0148044   -0.4405807   -0.4714855    0.7639306
   0.0994460    0.1153664   -0.0134991   -0.3845089   -0.5022004    0.7745629
   0.0938190    0.1168458   -0.0166983   -0.3438719   -0.4768421    0.8089337
   0.1015391    0.1151197   -0.0126531   -0.3967450   -0.5287415    0.7503505
   0.1033257    0.1144979   -0.0116191   -0.5859983   -0.5750616    0.5708854
   0.1042798    0.1141782   -0.0094677   -0.6958146   -0.6373274    0.3311432
   0.0518221    0.1537354   -0.0322239    0.1707517   -0.8952141   -0.4116255
   0.0533533    0.1501803   -0.0264467   -0.0095649   -0.4205681   -0.9072105
   0.0512160    0.1519295   -0.0290985    0.0893081   -0.8605110   -0.5015425
   0.0497261    0.1532445   -0.0356140    0.2575964   -0.9631839   -0.0769469
   0.0555751    0.1978325   -0.0684277    0.3689572   -0.2518266   -0.8946809
   0.0553737    0.1713879   -0.0603890    0.5978219   -0.2263371   -0.7690127
   0.0538687    0.1782077   -0.0636967    0.4915376   -0.2324153   -0.8392699
   0.0579578    0.1660859   -0.0562326    0.6946039   -0.3279989   -0.6402673
   0.0488772    0.1841416   -0.0675545    0.4304105   -0.2296587   -0.8729282
   0.0578507    0.1590130   -0.0490047    0.5313139   -0.6327244   -0.5633520
   0.0490658    0.1951975   -0.0708823    0.3134423   -0.2053317   -0.9271423
   0.0632303    0.1538607   -0.0361201   -0.5960637   -0.7881530    0.1533720
   0.0599923    0.1530317   -0.0393592    0.1275606   -0.9705163   -0.2045149
   0.0567220    0.1540427   -0.0383189    0.3928343   -0.8764226   -0.2785043
   0.0547347    0.1535958   -0.0418589    0.1089872   -0.9936929    0.0263871
   0.0474490    0.1514771   -0.0386363    0.3664832   -0.9221511    0.1238037
   0.0530157    0.1404327   -0.0238851   -0.2299014   -0.6273771   -0.7440049
   0.0583912    0.1413448   -0.0232372   -0.5793893   -0.3501811    0.7359899
   0.0619937    0.1417519   -0.0196848   -0.8178159   -0.3115142    0.4838761
   0.0499171    0.1404885   -0.0266227   -0.3037620   -0.2767386   -0.9116712
   0.0480799    0.1458557   -0.0261780   -0.2411192   -0.1108672   -0.9641421
   0.0852065    0.1238601   -0.0129889   -0.3090858   -0.8111870    0.4964289
   0.0875234    0.1228898   -0.0130784   -0.2151209   -0.8618688    0.4592441
   0.0898410    0.1221923   -0.0124646   -0.2638039   -0.8553321    0.4458862
   0.0922552    0.1216975   -0.0122049   -0.3417084   -0.8387800    0.4238908
   0.0944972    0.1206355   -0.0117491   -0.4423869   -0.7685881    0.4621322
   0.1055613    0.1131815   -0.0077683   -0.7133268   -0.6751067    0.1881380
   0.1093216    0.1092713   -0.0073081   -0.8085585   -0.5660120    0.1608215
   0.1065474    0.1122340   -0.0059198   -0.7142828   -0.6872635    0.1321703
   0.1093384    0.1065787   -0.0036049   -0.8048182   -0.5535353    0.2141645
   0.1083380    0.1081738   -0.0049156   -0.9621134   -0.1142338   -0.2475652
   0.1089988    0.1085330   -0.0029092   -0.3129942    0.1885352    0.9308540
   0.1146830    0.1016290    0.0093491    0.7874712    0.5070690    0.3503858
   0.1042938    0.1096778    0.0251658    0.1060310   -0.9464684    0.3048851
   0.1020440    0.1229021    0.0223333    0.5045430    0.1585773    0.8486988
   0.1018809    0.1105475    0.0241258    0.4379768   -0.8888159    0.1348427
   0.1019448    0.1085199    0.0203301    0.8777930   -0.4236431    0.2236201
   0.1036029    0.1099400    0.0209471    0.7118593    0.6693054   -0.2128068
   0.1052361    0.1110148    0.0213578    0.6387091   -0.2851158    0.7146745
   0.1080185    0.1122497    0.0203775    0.0204532   -0.7099619    0.7039430
   0.0993224    0.1373005    0.0245743    0.7375162   -0.1773480    0.6516268
   0.1045739    0.1470782    0.0201113    0.9108861   -0.3809731    0.1585749
   0.1092287    0.1077704    0.0207911    0.7952007    0.0368819    0.6052236
   0.1093716    0.1073731    0.0177793    0.9819471    0.1327031    0.1347950
   0.1075794    0.1076114    0.0218729    0.3063460    0.1447719    0.9408471
   0.1092122    0.1068518    0.0153563    0.4448575    0.2796052    0.8508365
   0.1100295    0.1073935    0.0155552    0.1919081    0.2002836    0.9607590
   0.1091064    0.1061972    0.0163288    0.9683015    0.2226490    0.1132241
   0.1150968    0.0994827    0.0131876    0.7105072   -0.7031139    0.0284668
   0.1155260    0.1001413    0.0110986    0.8093592   -0.4879491   -0.3268691
   0.1139331    0.1002628    0.0160773    0.5436903   -0.4509708    0.7078320
   0.1151450    0.1010759    0.0097709    0.9598991   -0.1695244   -0.2232827
   0.1120909    0.1009684    0.0169721   -0.0930138   -0.3124630    0.9453652
   0.0572980    0.1325529    0.0149277   -0.3448264   -0.1292114   -0.9297307
   0.0591245    0.1369565    0.0142568   -0.1636108   -0.0534111   -0.9850780
   0.0565475    0.1262997    0.0148054   -0.4136222   -0.1911338   -0.8901598
   0.0694119    0.1219533    0.0179828   -0.7769471    0.6118636   -0.1482434
   0.0692441    0.1243442    0.0175439    0.3408648   -0.6687174   -0.6607785
   0.0648784    0.1216189    0.0185860   -0.1107029   -0.0301032   -0.9933975
   0.0702155    0.1177852    0.0198089   -0.0780856   -0.5372441   -0.8398044
   0.0638310    0.1217426    0.0162059    0.2690726   -0.9554648    0.1211900
   0.0598365    0.1219227    0.0154516   -0.1956704   -0.8074737   -0.5565064
   0.0852895    0.1239537   -0.0036978   -0.1859600   -0.9824305   -0.0157837
   0.0762870    0.1262911    0.0000000   -0.1251599   -0.9891578   -0.0768233
   0.0843318    0.1249618   -0.0074157   -0.3949775   -0.9079685   -0.1399501
   0.0860101    0.1244709   -0.0073446   -0.3053027   -0.9520621   -0.0191865
   0.0852895    0.1239537    0.0036978   -0.1259150   -0.9902741   -0.0591829
   0.0843318    0.1249618    0.0074157   -0.3421416   -0.9329247    0.1122078
   0.0860101    0.1244709    0.0073446   -0.2536388   -0.9672784   -0.0063183
   0.0852065    0.1238601    0.0129889   -0.3590536   -0.7921389   -0.4935549
   0.0837900    0.1214094    0.0148712   -0.2547184   -0.3769517   -0.8905201
   0.0857701    0.1204395    0.0150164   -0.0687404   -0.4883866   -0.8699157
   0.0452696    0.1501965    0.0168976   -0.7528037   -0.5932237   -0.2852582
   0.0722440    0.1170662    0.0186276   -0.5818659   -0.3365836   -0.7403672
   0.0745398    0.1157715    0.0172227   -0.5223962   -0.4676257   -0.7130417
   0.0769976    0.1142534    0.0169752   -0.2844212   -0.6961986   -0.6590994
   0.1140977    0.0995713    0.0077910   -0.2428528   -0.8369871    0.4903827
   0.1133431    0.1011411    0.0091171    0.0063309   -0.9972488   -0.0738557
   0.1123337    0.1051529    0.0000000   -0.8854206   -0.4185920    0.2020175
   0.1110242    0.1057472   -0.0007589   -0.7334335   -0.4199458    0.5345286
   0.1110242    0.1057472    0.0007589   -0.8171248   -0.3790978   -0.4342716
   0.1093384    0.1065787    0.0036049   -0.8248072   -0.5215616   -0.2183269
   0.1126940    0.1032527    0.0049991   -0.8441265   -0.5353566   -0.0290478
   0.1128444    0.1025717    0.0059878   -0.8437951   -0.4942228   -0.2091737
   0.1132225    0.1012416    0.0068437   -0.7695397   -0.6313429    0.0959937
   0.1126351    0.1064575   -0.0084684    0.2767062    0.9605750    0.0270075
   0.1096462    0.1088717   -0.0044365   -0.7672159   -0.6284109    0.1283723
   0.1119491    0.1068544   -0.0072282   -0.1211191   -0.9568315    0.2642038
   0.1110070    0.1072776   -0.0059717   -0.2980728   -0.9251438    0.2350778
   0.0416334    0.1464197   -0.0589842   -0.6208775   -0.7539840    0.2145208
   0.0451920    0.1456360   -0.0565144   -0.3034530   -0.8130302    0.4968885
   0.0480565    0.1480163   -0.0540990    0.3942134   -0.7394331    0.5457422
   0.0507808    0.1516019   -0.0524530    0.8528996   -0.5148408    0.0866095
   0.0536964    0.1545744   -0.0505616    0.6978492   -0.6827534   -0.2164586
   0.0382275    0.1495356   -0.0599155   -0.4691952   -0.8830622   -0.0075472
   0.0253340    0.1651849   -0.0710961    0.4825132   -0.0567987   -0.8740451
   0.0296460    0.1643610   -0.0683587    0.4205088   -0.2283735   -0.8780763
   0.0389418    0.1671603   -0.0659220    0.3438160   -0.3281560   -0.8798319
   0.0494297    0.1596628   -0.0578820    0.3860336   -0.4119593   -0.8253894
   0.0519453    0.1565650   -0.0549979    0.4507146   -0.6287632   -0.6336507
   0.0558352    0.1558223   -0.0467241    0.5601496   -0.7327123   -0.3864779
   0.0489578    0.1681720   -0.0624683    0.4073503   -0.3544188   -0.8416965
   0.0454687    0.1731698   -0.0657931    0.3616427   -0.3142204   -0.8777700
   0.0537921    0.1626771   -0.0573704    0.4602830   -0.4114365   -0.7866763
   0.0346716    0.1522560   -0.0603984   -0.0293555   -0.9992854    0.0238102
   0.0305606    0.1505731   -0.0603825    0.1840335   -0.9824705   -0.0297232
   0.0255818    0.1538849   -0.0674051   -0.0552578   -0.9446211   -0.3234772
   0.0280722    0.1475509   -0.0579521   -0.3142188   -0.8467536   -0.4292726
   0.0241517    0.1500321   -0.0568513   -0.6443507   -0.7153638   -0.2703088
   0.0234043    0.1528774   -0.0626175    0.0045060   -0.9712011   -0.2382185
   0.0215911    0.1526593   -0.0575291   -0.1286916   -0.9907949   -0.0419986
   0.0227790    0.1549091   -0.0700274    0.2898949   -0.7693408   -0.5692765
   0.0261743    0.1575993   -0.0693251    0.2527504   -0.5129384   -0.8203728
   0.0213669    0.1619867   -0.0718795    0.3324799   -0.1575078   -0.9298647
   0.0617645    0.2141549   -0.0703143    0.4112692   -0.1233935   -0.9031233
   0.0551182    0.2124682   -0.0725269    0.3283981   -0.1229554   -0.9365024
   0.1128285    0.2034777   -0.0238175    0.9271873   -0.2457734   -0.2826997
   0.1108084    0.1986653   -0.0250058    0.8185260   -0.5219612   -0.2399412
   0.1121623    0.2096108   -0.0296515    0.9538992   -0.0015586   -0.3001232
   0.1103693    0.2184449   -0.0291886    0.9371086    0.1797909   -0.2991701
   0.1075123    0.2309416   -0.0297349    0.9590021    0.1270225   -0.2533380
   0.0756038    0.2278665   -0.0633063    0.4694486    0.1585464   -0.8686087
   0.0814384    0.2290912   -0.0597039    0.5087249    0.1860900   -0.8405769
   0.0871612    0.2302401   -0.0558670    0.5318840    0.2158303   -0.8188508
   0.0929182    0.2307692   -0.0519682    0.5913476    0.2159923   -0.7769526
