NORM_ASCII
3305 3779
   0.0456740    0.4177020    0.0242510    0.6639323   -0.3256496    0.6731613
   0.0458430    0.4158070    0.0226960    0.4345800   -0.1437860    0.8890814
   0.0469190    0.4141640    0.0216250   -0.4441090   -0.1705225    0.8795961
   0.0480000    0.4146570    0.0232740   -0.6139634    0.2451938    0.7502859
   0.0511010    0.4146480    0.0248620   -0.2215249    0.4654189    0.8569201
   0.0528390    0.4140830    0.0255410    0.2931712    0.3449196    0.8916732
   0.0536960    0.4127640    0.0246330    0.2952849   -0.5126924    0.8061968
   0.0548430    0.4114470    0.0227590    0.0900449   -0.7961454    0.5983682
   0.0556880    0.4113190    0.0237990   -0.5271707    0.0297619    0.8492381
   0.0578930    0.4113510    0.0251020    0.4437826   -0.6390079    0.6282722
   0.0588380    0.4114000    0.0246420    0.1656443   -0.8225447    0.5440425
   0.0610520    0.4113800    0.0257170   -0.1035440   -0.9498583    0.2950388
   0.0624210    0.4114800    0.0257540    0.3927737   -0.5970437    0.6994767
   0.0635580    0.4102170    0.0241180    0.4592041   -0.6656984    0.5881982
   0.0640270    0.4086160    0.0217860    0.5722619   -0.5937790    0.5656349
   0.0662560    0.4092410    0.0234560    0.1985976   -0.2703938    0.9420436
   0.0678550    0.4093170    0.0235070    0.2727718   -0.7963848    0.5397841
   0.0696780    0.4082850    0.0220920    0.5403821   -0.5717275    0.6173450
   0.0703530    0.4071120    0.0206580    0.3896113    0.2783667    0.8779038
   0.0712630    0.4077170    0.0215480   -0.3805967    0.9020660   -0.2035265
   0.0730980    0.4084140    0.0222090    0.3214855   -0.6386882    0.6990883
   0.0749380    0.4083710    0.0218070    0.3884267   -0.8089854    0.4412112
   0.0756700    0.4083300    0.0208780    0.4379410   -0.8888346    0.1348363
   0.0757250    0.4065750    0.0175930    0.8777804   -0.4235012    0.2239381
   0.0771600    0.4078040    0.0181270    0.7129145    0.6683755   -0.2121959
   0.0785740    0.4087340    0.0184830    0.6385211   -0.2856029    0.7146481
   0.0809810    0.4098030    0.0176340    0.0206884   -0.7098764    0.7040223
   0.0815110    0.4096760    0.0162170    0.5226385   -0.7184105    0.4590591
   0.0817150    0.4086650    0.0152180    0.6052381   -0.6262520    0.4914217
   0.0814240    0.4072670    0.0145280    0.8730760   -0.2245893    0.4327793
   0.0816320    0.4065980    0.0139370    0.8856064   -0.3627408    0.2900353
   0.0821420    0.4065800    0.0129940    0.8041388   -0.5230122    0.2825225
   0.0834800    0.4088860    0.0125730    0.5791910   -0.8149134    0.0213066
   0.0842770    0.4095760    0.0114860    0.4274144   -0.9020053   -0.0608560
   0.0850680    0.4095710    0.0095760    0.4548319   -0.7289917    0.5115653
   0.0854450    0.4074060    0.0080950    0.9472999   -0.3202144    0.0092546
   0.0848420    0.4054120    0.0079940    0.8376386   -0.0175938    0.5459413
   0.0859250    0.4072020    0.0074290    0.6983659   -0.1260178    0.7045598
   0.0865360    0.4087980    0.0068750    0.9093512   -0.4157622   -0.0149067
   0.0874000    0.4094650    0.0045890    0.2198866   -0.9657810    0.1375391
   0.0874620    0.4087410    0.0025470    0.7445249   -0.4245320    0.5152235
   0.0871990    0.4071830    0.0011540    0.9052385   -0.3597890    0.2260425
   0.0387600    0.4153140    0.0225000   -0.8220184    0.4960760    0.2796326
   0.0404330    0.4151190    0.0248050   -0.4368516    0.5214248    0.7329917
   0.0424080    0.4151750    0.0260930    0.1527788    0.3538033    0.9227577
   0.0439830    0.4146680    0.0257760    0.6811257    0.0028818    0.7321609
   0.0449190    0.4136670    0.0240770    0.9034389   -0.1503794    0.4014775
   0.0456590    0.4132280    0.0224940    0.7334791   -0.1121921    0.6703889
   0.0458470    0.4126670    0.0223780   -0.1772204    0.4453224    0.8776565
   0.0466220    0.4122190    0.0242090   -0.0934333    0.8327091    0.5457708
   0.0491980    0.4115840    0.0261440    0.2215124    0.6512563    0.7258081
   0.0514310    0.4114590    0.0267530    0.1009366    0.4065550    0.9080335
   0.0532550    0.4107620    0.0257570    0.5653015    0.1046828    0.8182149
   0.0539420    0.4098900    0.0245100    0.6815025   -0.1580371    0.7145479
   0.0546300    0.4090260    0.0232520   -0.1886765    0.2787288    0.9416536
   0.0561000    0.4087480    0.0250770   -0.0966569    0.3951436    0.9135201
   0.0587850    0.4085750    0.0257140    0.0687141    0.1488521    0.9864692
   0.0611830    0.4072970    0.0258400   -0.0204407   -0.0970643    0.9950682
   0.0625610    0.4074050    0.0258750    0.3599973   -0.1730239    0.9167686
   0.0629020    0.4077890    0.0243440    0.8224298   -0.2125431    0.5276691
   0.0629770    0.4073670    0.0224900    0.6287920   -0.1946584    0.7528139
   0.0634660    0.4071080    0.0215860    0.2554004    0.1378405    0.9569590
   0.0665080    0.4070630    0.0241570    0.1277222    0.2128876    0.9686929
   0.0683470    0.4070220    0.0237640    0.5120724    0.0517052    0.8573847
   0.0693080    0.4065600    0.0221940    0.9060351   -0.0537020    0.4197814
   0.0695820    0.4059180    0.0206330   -0.0092074    0.1872871    0.9822621
   0.0711050    0.4060720    0.0221220   -0.6539915    0.3046519    0.6924466
   0.0730770    0.4057860    0.0230010   -0.0576594    0.1630423    0.9849328
   0.0747130    0.4056500    0.0221210    0.6508750    0.0030235    0.7591789
   0.0757250    0.4056730    0.0204530    0.9258250   -0.0435197    0.3754385
   0.0753480    0.4052970    0.0185700    0.9808174    0.0254852    0.1932556
   0.0756290    0.4053100    0.0176020    0.3650810    0.1951216    0.9102985
   0.0782550    0.4051020    0.0192210   -0.1668991    0.1298104    0.9773914
   0.0806010    0.4057890    0.0189290    0.3064161    0.1447390    0.9408293
   0.0820290    0.4059260    0.0179920    0.7952813    0.0367342    0.6051266
   0.0821520    0.4055830    0.0153860    0.9819730    0.1326333    0.1346753
   0.0819230    0.4045650    0.0141310    0.9683850    0.2225627    0.1126780
   0.0820140    0.4051310    0.0132890    0.4454325    0.2797378    0.8504920
   0.0827220    0.4056000    0.0134610    0.1919949    0.2004459    0.9607078
   0.0841630    0.4064230    0.0133510    0.8226883    0.2017413    0.5314927
   0.0861220    0.4067880    0.0114130    0.9599694    0.2272100    0.1638120
   0.0863460    0.4056710    0.0099480    0.9555088    0.1877849   -0.2274638
   0.0854180    0.4041310    0.0082830    0.8638562    0.2521356    0.4360965
   0.0877950    0.4050040    0.0077140    0.4522095    0.1229278    0.8833999
   0.0884760    0.4068670    0.0061400    0.8119125    0.1939676    0.5506130
   0.0888550    0.4071040    0.0039220    0.9592295    0.2732715    0.0721206
   0.0886300    0.4052830    0.0013680    0.9602091    0.2787102   -0.0178656
   0.0389890    0.4139420    0.0245000   -0.8103314    0.0020859    0.5859682
   0.0408870    0.4130250    0.0259860   -0.2915000    0.0862403    0.9526754
   0.0426540    0.4123110    0.0259680    0.2361648   -0.0424256    0.9707864
   0.0437530    0.4112490    0.0252570    0.6453395   -0.2984990    0.7031609
   0.0445140    0.4110570    0.0236230    0.8543687   -0.3080896    0.4184912
   0.0447720    0.4108760    0.0229440    0.1911487   -0.2653262    0.9450207
   0.0458300    0.4107760    0.0242250   -0.6027235    0.3139561    0.7335911
   0.0479710    0.4100840    0.0256750   -0.2245981    0.3423829    0.9123210
   0.0500530    0.4079170    0.0262110    0.1177354   -0.0714183    0.9904735
   0.0519170    0.4084560    0.0261780    0.3273873   -0.4253391    0.8437442
   0.0533440    0.4085940    0.0252420    0.6824488   -0.3669017    0.6321762
   0.0545750    0.4082400    0.0231730   -0.1418310   -0.7855421    0.6023351
   0.0550740    0.4070370    0.0248990   -0.9094046   -0.1118025    0.4006039
   0.0560850    0.4057650    0.0254540   -0.3960722   -0.0576889    0.9164054
   0.0592170    0.4047970    0.0250580   -0.0031054   -0.2979087    0.9545893
   0.0612360    0.4042960    0.0249970    0.0782547   -0.4822373    0.8725385
   0.0623750    0.4033780    0.0237790    0.4104717   -0.6393085    0.6502289
   0.0630950    0.4030440    0.0226610    0.3930487   -0.9156062    0.0847234
   0.0646240    0.4028020    0.0235040    0.0677486   -0.3173098    0.9458988
   0.0654530    0.4016310    0.0232920    0.0980649   -0.5839956    0.8058117
   0.0675690    0.4023940    0.0232230    0.1369788   -0.6964630    0.7043977
   0.0684980    0.4017900    0.0221710   -0.2127402   -0.9707484    0.1113065
   0.0692310    0.4017580    0.0212400    0.6865816   -0.6333299    0.3570698
   0.0705710    0.4020160    0.0219710   -0.5623029   -0.3675700    0.7407481
   0.0723280    0.4013440    0.0221840   -0.0962995   -0.5249100    0.8456926
   0.0742100    0.4018290    0.0219140    0.5504581   -0.5709782    0.6090811
   0.0754430    0.4018310    0.0202690    0.6659528   -0.6189014    0.4164948
   0.0759550    0.4017690    0.0190870    0.3715003   -0.4520771    0.8109339
   0.0759830    0.4016090    0.0183830   -0.1431749   -0.9421346    0.3031225
   0.0779730    0.4012580    0.0190280   -0.1000134   -0.5547864    0.8259597
   0.0794950    0.3999750    0.0186290   -0.0199187   -0.5825219    0.8125709
   0.0806360    0.3994000    0.0178190    0.3401254   -0.8046740    0.4866359
   0.0816130    0.3999280    0.0172720    0.6797904   -0.6351598    0.3666840
   0.0824070    0.4003280    0.0160060    0.7535642   -0.6573655   -0.0034022
   0.0827690    0.4009500    0.0144260    0.7594417   -0.4393989    0.4797675
   0.0827580    0.4006590    0.0142460   -0.1005115   -0.3497549    0.9314338
   0.0845060    0.4000400    0.0146870   -0.0928167   -0.3123141    0.9454337
   0.0861000    0.3994290    0.0139130    0.5436706   -0.4508643    0.7079151
   0.0871070    0.3987540    0.0114120    0.7103652   -0.7032433    0.0288114
   0.0874780    0.3993240    0.0096050    0.8094988   -0.4879068   -0.3265863
   0.0871490    0.4001330    0.0084560    0.9599434   -0.1695735   -0.2230549
   0.0867490    0.4006120    0.0080910    0.7874424    0.5071040    0.3503998
   0.0880690    0.3995800    0.0076310    0.4525785   -0.2258508    0.8626495
   0.0882640    0.3986230    0.0068700    0.5724515   -0.5500583    0.6080585
   0.0887810    0.3982060    0.0052730    0.3705353   -0.9040862    0.2129126
   0.0891110    0.3983000    0.0035620    0.7243672   -0.6891955    0.0173682
   0.0378890    0.4124510    0.0218400   -0.9400881   -0.3009230   -0.1602487
   0.0389690    0.4126000    0.0230710   -0.7278993   -0.6670646    0.1587055
   0.0397140    0.4119680    0.0251880   -0.7527917   -0.5472693    0.3657883
   0.0409640    0.4105650    0.0252820   -0.2974505   -0.7938490    0.5304027
   0.0425970    0.4111810    0.0254720    0.0396421   -0.7870330    0.6156359
   0.0437580    0.4105080    0.0241940    0.3352802   -0.8068550    0.4863869
   0.0452610    0.4106190    0.0220500   -0.2271013   -0.8883049   -0.3991733
   0.0450750    0.4091330    0.0233170   -0.6505737   -0.6189212   -0.4401027
   0.0461640    0.4092290    0.0243200   -0.4096057   -0.7569492    0.5091671
   0.0477050    0.4092250    0.0251140   -0.5973244   -0.5958215    0.5368429
   0.0493440    0.4071040    0.0256220   -0.1653984   -0.9419544    0.2921734
   0.0512240    0.4071930    0.0247050    0.1287872   -0.9624815    0.2388373
   0.0533050    0.4073580    0.0242790    0.3629616   -0.8722806    0.3276971
   0.0549730    0.4074170    0.0231200   -0.4216198   -0.8105225    0.4065588
   0.0545880    0.4051070    0.0228450   -0.7239604   -0.6781672    0.1263748
   0.0557730    0.4040760    0.0245740   -0.5668187   -0.7534372    0.3332402
   0.0582950    0.4039520    0.0242170   -0.4099777   -0.8752878    0.2564947
   0.0600870    0.4027270    0.0230890   -0.0930237   -0.9902311    0.1038702
   0.0626950    0.4035230    0.0222960   -0.0767785   -0.7940780   -0.6029471
   0.0641610    0.4014540    0.0218190   -0.4592142   -0.8685916   -0.1862011
   0.0661990    0.4008490    0.0213010   -0.0831758   -0.9600897   -0.2670383
   0.0681540    0.4019520    0.0204170    0.1331423   -0.9277462   -0.3486546
   0.0688090    0.4019890    0.0209260   -0.1950901   -0.7279429   -0.6572967
   0.0701080    0.4006680    0.0202860   -0.2996156   -0.7991036   -0.5212140
   0.0728620    0.4004780    0.0197030    0.0035365   -0.9861718   -0.1656887
   0.0755490    0.4016030    0.0181270   -0.2002621   -0.9442775    0.2612184
   0.0766120    0.3996590    0.0168690   -0.5195110   -0.8257956    0.2194765
   0.0785980    0.3985680    0.0164500   -0.2934326   -0.8820538   -0.3686168
   0.0798860    0.3993470    0.0148860    0.0249737   -0.8690119   -0.4941605
   0.0806420    0.3998960    0.0143150    0.1987703   -0.6848478   -0.7010520
   0.0818740    0.4009910    0.0141410   -0.1570027   -0.9860532    0.0552202
   0.0829410    0.3994000    0.0132980   -0.4430635   -0.7885217    0.4265305
   0.0843040    0.3988640    0.0127380   -0.3028170   -0.9519305    0.0461548
   0.0853040    0.3985350    0.0106540   -0.2573782   -0.9631273   -0.0783728
   0.0851630    0.3988310    0.0096090   -0.2983016   -0.8629721   -0.4077932
   0.0855890    0.4001890    0.0078900    0.0061049   -0.9972438   -0.0739430
   0.0862420    0.3988310    0.0067420   -0.2430104   -0.8369907    0.4902984
   0.0867700    0.3983090    0.0046780   -0.7009304   -0.7131532   -0.0104428
   0.0868750    0.3980810    0.0025360   -0.5243024   -0.8483220   -0.0738697
   0.0393440    0.4133840    0.0175780   -0.7205592    0.0350963   -0.6925046
   0.0394370    0.4119540    0.0181180   -0.6128816   -0.6680233   -0.4220439
   0.0402400    0.4123900    0.0204950   -0.4761490   -0.8216878    0.3132273
   0.0412980    0.4123000    0.0217750   -0.5770604   -0.8079679    0.1191186
   0.0421170    0.4112340    0.0220300   -0.4649329   -0.8691885    0.1683710
   0.0426990    0.4105990    0.0229140   -0.0804312   -0.9884166    0.1286994
   0.0455130    0.4107810    0.0217780    0.0178282   -0.9819899   -0.1880905
   0.0467190    0.4085490    0.0215620   -0.2722638   -0.9024348    0.3338920
   0.0487830    0.4088780    0.0218200   -0.3861512   -0.6802105    0.6230577
   0.0500950    0.4078570    0.0213580   -0.2025361   -0.8480642    0.4896593
   0.0505580    0.4081030    0.0215760    0.0164479   -0.9243436    0.3812065
   0.0513770    0.4070380    0.0218310   -0.0327641   -0.9652555    0.2592458
   0.0524850    0.4070260    0.0223590    0.2418739   -0.9640515    0.1100074
   0.0536900    0.4071860    0.0214090   -0.2631614   -0.9569188    0.1226889
   0.0536550    0.4063040    0.0208620   -0.9011544   -0.4283254    0.0667685
   0.0546560    0.4050810    0.0216360   -0.5790895   -0.8052849    0.1271677
   0.0581040    0.4050620    0.0210570   -0.2488752   -0.9374851    0.2432750
   0.0589940    0.4042730    0.0202900   -0.2426732   -0.9699569    0.0171264
   0.0608210    0.4039810    0.0199380    0.2041596   -0.9091091   -0.3630971
   0.0619490    0.4042100    0.0204270   -0.2221488   -0.9703911   -0.0948211
   0.0637380    0.4037320    0.0203520   -0.5637084   -0.8103489    0.1598983
   0.0655820    0.4029390    0.0188880   -0.0496163   -0.9889811   -0.1394796
   0.0666950    0.4025230    0.0187810   -0.1910374   -0.9583739   -0.2121890
   0.0683730    0.4039770    0.0192790   -0.1738479   -0.9728730   -0.1526271
   0.0696730    0.4026560    0.0186390   -0.4391175   -0.8980220   -0.0270615
   0.0712360    0.4018480    0.0181350   -0.0085258   -0.9345618   -0.3556988
   0.0744740    0.4021430    0.0177300    0.0445386   -0.7166571   -0.6960021
   0.0749270    0.4020440    0.0175210   -0.5590361   -0.7395273   -0.3749373
   0.0769990    0.4008840    0.0156630   -0.6609277   -0.6570852   -0.3625101
   0.0779410    0.4005790    0.0147890   -0.5306013   -0.6527575   -0.5407123
   0.0790970    0.4006500    0.0145830   -0.2910123   -0.5751327   -0.7645483
   0.0800320    0.4006900    0.0141250   -0.1100948   -0.4691790   -0.8762136
   0.0812430    0.4015460    0.0139990   -0.4076697   -0.5925668   -0.6947445
   0.0821790    0.4005450    0.0123010   -0.6643745   -0.6700249   -0.3311694
   0.0834020    0.4002530    0.0104580   -0.7105614   -0.6334369   -0.3063661
   0.0851370    0.4002870    0.0080900   -0.6456993   -0.6902155   -0.3266112
   0.0854850    0.4002760    0.0059220   -0.7696115   -0.6312849    0.0957997
   0.0851580    0.4014270    0.0051820   -0.8437686   -0.4941450   -0.2094641
   0.0850280    0.4020170    0.0043260   -0.8441459   -0.5353196   -0.0291650
   0.0854630    0.4009820    0.0033420   -0.8408004   -0.5413451    0.0002678
   0.0855640    0.4014940    0.0022630   -0.8620307   -0.5005308   -0.0798248
   0.0402480    0.4108990    0.0183700   -0.6975092   -0.6379854   -0.3262753
   0.0410280    0.4097020    0.0191400   -0.5832642   -0.7834970   -0.2143254
   0.0422920    0.4089350    0.0198400   -0.1379750   -0.9872005   -0.0799879
   0.0433530    0.4091870    0.0215280    0.2390321   -0.9036196    0.3554368
   0.0450870    0.4103250    0.0206370    0.1801210   -0.9614583   -0.2077364
   0.0461160    0.4089470    0.0207260   -0.7978324   -0.5418351   -0.2643448
   0.0467140    0.4078510    0.0207290   -0.7662043   -0.6130670    0.1925614
   0.0480100    0.4062370    0.0199010   -0.5616257   -0.8027339    0.2004863
   0.0495550    0.4055360    0.0198710   -0.2241286   -0.9132878    0.3401056
   0.0506720    0.4054720    0.0201710    0.0925231   -0.9949565    0.0387437
   0.0513670    0.4056510    0.0201630    0.4474876   -0.8774249   -0.1728593
   0.0530630    0.4069910    0.0202060   -0.1061652   -0.9875602   -0.1159909
   0.0536960    0.4053420    0.0188690   -0.8922049   -0.4178351   -0.1714182
   0.0555870    0.4033310    0.0188760   -0.5450949   -0.8341838   -0.0837196
   0.0571530    0.4028780    0.0187960   -0.0385949   -0.9983452   -0.0426301
   0.0587740    0.4032020    0.0187970    0.2759696   -0.8804209   -0.3856161
   0.0604370    0.4040020    0.0187010    0.4744231   -0.6569207   -0.5859845
   0.0612080    0.4051950    0.0187260    0.0796849   -0.6467579   -0.7585213
   0.0632840    0.4023330    0.0184380   -0.6207622   -0.7613504   -0.1870823
   0.0642070    0.4021340    0.0180290   -0.1962193   -0.9643044   -0.1778058
   0.0652230    0.4024570    0.0165390    0.1909020   -0.9015559   -0.3882696
   0.0665930    0.4029540    0.0172310    0.0507447   -0.9108859   -0.4095264
   0.0681510    0.4025010    0.0171420   -0.5206729   -0.8536713   -0.0120390
   0.0693210    0.4017760    0.0156350   -0.4985944   -0.8401581   -0.2133962
   0.0711360    0.4011840    0.0151060    0.0010417   -0.8599413   -0.5103918
   0.0724340    0.4009650    0.0159340    0.4949067   -0.6985221   -0.5168504
   0.0735870    0.4017860    0.0167900    0.4681516   -0.5491116   -0.6923226
   0.0745580    0.4027710    0.0171150   -0.4410141   -0.6817510   -0.5837141
   0.0747480    0.4035060    0.0147770   -0.8076480   -0.4512663   -0.3795570
   0.0753220    0.4041590    0.0134490   -0.6732435   -0.4922873   -0.5517213
   0.0765470    0.4042130    0.0120330   -0.2445001   -0.4404354   -0.8638497
   0.0778730    0.4038870    0.0123960    0.0534448   -0.3781424   -0.9242034
   0.0800600    0.4029220    0.0126870   -0.1942469   -0.3846506   -0.9023924
   0.0801460    0.4038940    0.0124900   -0.5734686   -0.4019094   -0.7138646
   0.0800070    0.4044840    0.0116330   -0.8521752   -0.4777511   -0.2134274
   0.0800270    0.4056760    0.0089540   -0.8194841   -0.4109837   -0.3994225
   0.0812520    0.4057300    0.0075380   -0.6672410   -0.3576391   -0.6533634
   0.0830460    0.4048470    0.0068190   -0.7802971   -0.5604158   -0.2776159
   0.0836230    0.4035150    0.0068790   -0.8811525   -0.4693152   -0.0575633
   0.0828380    0.4040670    0.0055150   -0.8506547   -0.5229498   -0.0539458
   0.0821240    0.4048950    0.0031200   -0.8248266   -0.5215669   -0.2182410
   0.0835820    0.4041750    0.0006570   -0.8171640   -0.3791718   -0.4341333
   0.0416540    0.4131790    0.0167410   -0.2282126   -0.2691907   -0.9356577
   0.0424620    0.4118230    0.0168160   -0.0262431   -0.4134396   -0.9101533
   0.0444100    0.4109940    0.0175480    0.2456561   -0.6578859   -0.7119264
   0.0449420    0.4102700    0.0191860    0.5743369   -0.7533244   -0.3203740
   0.0458340    0.4109280    0.0203040   -0.0231293   -0.5144851   -0.8571873
   0.0476780    0.4090840    0.0176020   -0.5507741   -0.2691797   -0.7900570
   0.0507560    0.4073370    0.0171150   -0.0356382   -0.4986158   -0.8660902
   0.0520850    0.4073560    0.0178950    0.5392743   -0.5771396   -0.6132643
   0.0529430    0.4074760    0.0188840   -0.0666944   -0.7247724   -0.6857528
   0.0541320    0.4066450    0.0169120   -0.8360032   -0.2435069   -0.4917348
   0.0557660    0.4061670    0.0156230   -0.3343697   -0.3866560   -0.8594731
   0.0590640    0.4055430    0.0168580    0.2382400   -0.4042009   -0.8830987
   0.0603740    0.4056170    0.0178750    0.4247032   -0.2949920   -0.8559246
   0.0611010    0.4063770    0.0182370   -0.1431988   -0.2270960   -0.9632868
   0.0615700    0.4058290    0.0171540   -0.7962499   -0.2277003   -0.5604808
   0.0625520    0.4056560    0.0157650   -0.6103148   -0.2472887   -0.7525717
   0.0641480    0.4053900    0.0154080   -0.3143761   -0.2461883   -0.9168200
   0.0655080    0.4055510    0.0156710    0.1896754   -0.2712460   -0.9436360
   0.0674830    0.4056580    0.0171880    0.0383361   -0.1927354   -0.9805016
   0.0681970    0.4046290    0.0152470   -0.7082407   -0.1027928   -0.6984474
   0.0698620    0.4043340    0.0136720   -0.5215311   -0.1960031   -0.8304144
   0.0719260    0.4046130    0.0137010    0.1676288   -0.2692112   -0.9483807
   0.0737190    0.4048860    0.0146970    0.2063658   -0.4380552   -0.8749405
   0.0742400    0.4038700    0.0161460    0.0439238   -0.6282214   -0.7767938
   0.0748920    0.4068450    0.0126350   -0.7481689   -0.1310162   -0.6504445
   0.0776880    0.4071340    0.0119650   -0.0613469    0.7860630    0.6150947
   0.0785700    0.4067930    0.0120720    0.1190365    0.3295255   -0.9366126
   0.0795530    0.4065780    0.0104530   -0.6327188    0.7339681   -0.2468964
   0.0799120    0.4069090    0.0086940   -0.1230157    0.9898462   -0.0712152
   0.0809180    0.4072770    0.0074430   -0.2830594    0.7171596   -0.6368356
   0.0813680    0.4068870    0.0070540   -0.0899215    0.5977145   -0.7966502
   0.0815930    0.4061140    0.0060070   -0.2854334    0.7280716   -0.6232492
   0.0812580    0.4062750    0.0042540   -0.9246335   -0.0645668    0.3753453
   0.0818300    0.4065860    0.0025180   -0.2270144    0.9730345   -0.0408460
   0.0825800    0.4064900    0.0013520   -0.5838265    0.5534351   -0.5940170
   0.0453010    0.4167560    0.0160810   -0.9578013    0.0600642   -0.2810853
   0.0436490    0.4179110    0.0160840   -0.1106790   -0.0302350   -0.9933962
   0.0469360    0.4150020    0.0185300   -0.1396240   -0.7457584   -0.6514211
   0.0486670    0.4133960    0.0179670   -0.5902337   -0.3376606   -0.7332186
   0.0505230    0.4128930    0.0166830   -0.5043458   -0.4766326   -0.7200394
   0.0514760    0.4128900    0.0159960   -0.2825893   -0.7278829   -0.6247637
   0.0533940    0.4118160    0.0167880    0.3079780   -0.8656591   -0.3946947
   0.0542890    0.4117740    0.0170730   -0.4780105   -0.7855946   -0.3928704
   0.0564510    0.4122230    0.0156150   -0.5565096   -0.8041380   -0.2089477
   0.0601940    0.4119510    0.0175340    0.2957349   -0.6751225   -0.6758331
   0.0612990    0.4115970    0.0176530   -0.5720544   -0.1983459   -0.7958723
   0.0648340    0.4114460    0.0153990    0.3937052    0.7012732    0.5943165
   0.0669700    0.4100550    0.0160170    0.6136236   -0.0136081   -0.7894814
   0.0671580    0.4095450    0.0161300   -0.5470378   -0.7240240   -0.4201653
   0.0682630    0.4091910    0.0162500   -0.8720723   -0.0960798   -0.4798527
   0.0701070    0.4107270    0.0138150    0.1724436    0.9447740    0.2786848
   0.0723350    0.4099150    0.0135980    0.1783862   -0.2826898   -0.9424780
   0.0733970    0.4090650    0.0138180   -0.3027590   -0.4348223   -0.8480959
   0.0751300    0.4078620    0.0138910   -0.4725832   -0.0076957   -0.8812525
   0.0781950    0.4061890    0.0123490   -0.1442355    0.8045774   -0.5760654
   0.0809580    0.4059470    0.0115380   -0.6841302   -0.5992872   -0.4157172
   0.0822530    0.4053760    0.0119600    0.5652861    0.8241626   -0.0347522
   0.0819000    0.4055910    0.0104350   -0.8100932   -0.4079457   -0.4211048
   0.0822680    0.4058700    0.0084480   -0.7705596    0.6340060   -0.0653784
   0.0836530    0.4055190    0.0076010   -0.3234512    0.7882125    0.5235460
   0.0849770    0.4047900    0.0073280    0.2808030    0.9451711    0.1667370
   0.0843830    0.4051340    0.0062550   -0.4642134    0.6415443    0.6106774
   0.0835680    0.4055000    0.0051680   -0.8998347    0.0043025    0.4362098
   0.0836530    0.4053700    0.0035020   -0.8453472   -0.1513766   -0.5123215
   0.0851190    0.4052940    0.0016250   -0.4337842    0.8638360    0.2561614
   0.0482350    0.4237710    0.0020960   -0.1231226   -0.9193484    0.3736835
   0.0506360    0.4228440    0.0026280   -0.3575998   -0.7343148    0.5769785
   0.0524020    0.4221210    0.0026120   -0.2667713   -0.8256570    0.4971153
   0.0553060    0.4216320    0.0030750   -0.3660782   -0.7580352    0.5397865
   0.0578850    0.4201980    0.0037290   -0.3361011   -0.8747558    0.3490535
   0.0613120    0.4199310    0.0032000   -0.1259920   -0.9902636   -0.0591950
   0.0638440    0.4197540    0.0026050   -0.1399565   -0.9871004   -0.0777490
   0.0643850    0.4199290    0.0013750   -0.2294871   -0.9605114   -0.1573326
   0.0646650    0.4199450    0.0004160   -0.2741149   -0.8891369   -0.3664651
   0.0444850    0.4384800    0.0008230   -0.6181198    0.0802614    0.7819757
   0.0455290    0.4342610    0.0008220   -0.3721213    0.0474606    0.9269699
   0.0458400    0.4321190    0.0008220    0.0883205    0.3467687    0.9337831
   0.0455910    0.4288060    0.0008220    0.1133349    0.2039179    0.9724056
   0.0078550    0.4134000    0.0329670   -0.8428036   -0.4813606   -0.2407781
   0.0084790    0.4132940    0.0339930   -0.1935104   -0.7271180    0.6586753
   0.0094150    0.4133430    0.0335330    0.6413533   -0.5486015    0.5363789
   0.0096940    0.4134000    0.0328050    0.8847598   -0.4433390   -0.1437035
   0.0092820    0.4135790    0.0322620    0.8210495    0.1290502   -0.5560789
   0.0084180    0.4138140    0.0316880   -0.0328839   -0.6854053   -0.7274189
   0.0037950    0.4284550    0.0364920   -0.9301066   -0.3663340   -0.0264775
   0.0061660    0.4273440    0.0373100   -0.2552689   -0.3884649    0.8853998
   0.0077200    0.4265900    0.0370430    0.6257518   -0.1358209    0.7681064
   0.0091390    0.4256750    0.0348580    0.9984455    0.0134523    0.0540884
   0.0079320    0.4264700    0.0331870    0.5874852    0.0335370   -0.8085397
   0.0051240    0.4269840    0.0351470   -0.7643011   -0.1777493   -0.6198782
  -0.0635550    0.5198420    0.0048580   -0.9233323    0.3736179   -0.0886968
  -0.0640870    0.5188610    0.0128270   -0.9285052    0.3626983    0.0795487
  -0.0637550    0.5185550    0.0185000   -0.9285293    0.3476454    0.1302924
  -0.0637920    0.5178120    0.0220620   -0.9396497    0.2925531    0.1774010
  -0.0621460    0.5192760    0.0271750   -0.9026928    0.3756864    0.2097748
  -0.0578690    0.5231810    0.0331210   -0.8227514    0.4558474    0.3395338
  -0.0531670    0.5261540    0.0385500   -0.7317774    0.5001989    0.4629286
  -0.0472400    0.5291180    0.0423260   -0.6219857    0.5976026    0.5059692
  -0.0425090    0.5307720    0.0453450   -0.5405515    0.6415446    0.5442653
  -0.0347870    0.5329110    0.0486290   -0.4170635    0.6591555    0.6257572
  -0.0269330    0.5337080    0.0517160   -0.2658087    0.7002090    0.6626108
  -0.0191660    0.5331760    0.0545850   -0.1633817    0.7074787    0.6875902
  -0.0117130    0.5330030    0.0554230   -0.0657070    0.6780945    0.7320317
  -0.0016070    0.5321150    0.0567580    0.0086320    0.6453606    0.7638293
   0.0065350    0.5314650    0.0569950    0.0912717    0.6205166    0.7788637
   0.0197460    0.5316940    0.0560300    0.1590953    0.6005492    0.7836002
   0.0259480    0.5314840    0.0548680    0.2333742    0.5719099    0.7864195
   0.0295850    0.5309020    0.0541730    0.2336570    0.5537254    0.7992450
   0.0332840    0.5310980    0.0535600    0.1994034    0.5697513    0.7972589
   0.0374750    0.5309810    0.0518060    0.2836303    0.5788905    0.7644865
   0.0451830    0.5311760    0.0486880    0.3818400    0.5614370    0.7341572
   0.0513200    0.5311240    0.0448170    0.4145187    0.6112230    0.6742260
   0.0590890    0.5326470    0.0385050    0.4311910    0.6297328    0.6461508
   0.0645640    0.5339120    0.0321410    0.5318922    0.6841381    0.4990448
   0.0671730    0.5345710    0.0272470    0.6491109    0.6685898    0.3628260
   0.0699450    0.5340640    0.0218730    0.7093556    0.6633017    0.2384229
   0.0728910    0.5324090    0.0160150    0.7805427    0.6090466    0.1407668
   0.0740450    0.5319830    0.0112840    0.7969630    0.5900616    0.1291405
   0.0747620    0.5322500    0.0071200    0.8045842    0.5845315    0.1047239
  -0.0557700    0.5325420    0.0130250   -0.8161925    0.5744425    0.0620126
  -0.0535700    0.5336200    0.0236070   -0.7547572    0.6310719    0.1791364
  -0.0479090    0.5372240    0.0289350   -0.6250677    0.7226123    0.2951641
  -0.0407140    0.5398350    0.0340540   -0.4989873    0.7781094    0.3815200
  -0.0343270    0.5403530    0.0385940   -0.3824566    0.7972975    0.4669514
  -0.0253910    0.5425490    0.0404700   -0.2371995    0.8232281    0.5157828
  -0.0161210    0.5432330    0.0426630   -0.1189227    0.8265238    0.5501961
  -0.0086870    0.5431550    0.0439590   -0.0484698    0.8099008    0.5845609
   0.0000220    0.5423280    0.0459610   -0.0063294    0.7884988    0.6150038
   0.0135440    0.5418520    0.0466120    0.0353296    0.7843113    0.6193606
   0.0214180    0.5423410    0.0448960    0.0925350    0.7801974    0.6186512
   0.0268760    0.5418730    0.0444940    0.1521507    0.7652929    0.6254414
   0.0329290    0.5422990    0.0427150    0.1980358    0.7547962    0.6253515
   0.0389960    0.5419800    0.0398650    0.3007265    0.7619856    0.5735343
   0.0451020    0.5417430    0.0362800    0.3330634    0.7849831    0.5223699
   0.0517400    0.5417260    0.0316950    0.3608219    0.8056747    0.4697828
   0.0577710    0.5414160    0.0254390    0.4720923    0.8098380    0.3482690
   0.0627420    0.5421530    0.0152730    0.5646834    0.7934067    0.2272409
   0.0644440    0.5425530    0.0099160    0.6236004    0.7683473    0.1441001
  -0.0445470    0.5454800    0.0091200   -0.6537199    0.7555447    0.0424551
  -0.0432200    0.5456410    0.0140100   -0.5914282    0.7935326    0.1432434
  -0.0392930    0.5466650    0.0183520   -0.5105541    0.8297981    0.2253212
  -0.0346230    0.5479980    0.0221620   -0.3950770    0.8649901    0.3093645
  -0.0303210    0.5488390    0.0236260   -0.3048947    0.8828556    0.3572187
  -0.0235710    0.5499920    0.0265930   -0.2321305    0.8977109    0.3744737
  -0.0156480    0.5507640    0.0284720   -0.1308617    0.9134019    0.3854505
  -0.0053220    0.5510120    0.0315270   -0.0569409    0.9087769    0.4133792
   0.0016870    0.5508240    0.0321100   -0.0124056    0.9000399    0.4356310
   0.0154030    0.5514400    0.0308370    0.0270275    0.9005794    0.4338506
   0.0226710    0.5510800    0.0307380    0.0806425    0.8870180    0.4546381
   0.0284520    0.5511030    0.0292700    0.1623318    0.8994980    0.4056499
   0.0342570    0.5506120    0.0266930    0.2378220    0.8969864    0.3726341
   0.0397510    0.5508270    0.0225010    0.2687229    0.8986294    0.3467754
   0.0448790    0.5510070    0.0168340    0.3509688    0.8988521    0.2624612
   0.0478670    0.5508840    0.0121180    0.3668602    0.9043743    0.2179923
   0.0492690    0.5513750    0.0081860    0.3865371    0.9130247    0.1302883
  -0.0371060    0.5506980    0.0054430   -0.4675020    0.8794350    0.0896432
  -0.0337640    0.5520130    0.0084740   -0.3691804    0.9145477    0.1652522
  -0.0274820    0.5536620    0.0122870   -0.2690495    0.9400987    0.2093484
  -0.0201290    0.5544790    0.0163260   -0.1988620    0.9528395    0.2292397
  -0.0105980    0.5552220    0.0177900   -0.1183985    0.9605786    0.2515363
  -0.0029020    0.5553160    0.0188220   -0.0541818    0.9588032    0.2788563
   0.0039200    0.5557000    0.0195180   -0.0114977    0.9575653    0.2879869
   0.0152400    0.5555470    0.0192800    0.0212122    0.9600031    0.2791847
   0.0208500    0.5560190    0.0174740    0.0931569    0.9578805    0.2716371
   0.0251100    0.5562310    0.0149260    0.1480226    0.9629864    0.2252697
   0.0287240    0.5563570    0.0116510    0.1628704    0.9660424    0.2005872
   0.0320590    0.5564770    0.0093320    0.1755743    0.9703187    0.1662990
   0.0342470    0.5564110    0.0067550    0.2009179    0.9693460    0.1414229
  -0.0248650    0.5552150    0.0045360   -0.2691352    0.9598228    0.0794129
  -0.0163530    0.5563930    0.0085400   -0.1630192    0.9778094    0.1315807
  -0.0104540    0.5570280    0.0098730   -0.0965108    0.9777286    0.1863665
  -0.0006450    0.5574820    0.0101910   -0.0508708    0.9746011    0.2180937
   0.0056100    0.5580430    0.0091210   -0.0070816    0.9786542    0.2053917
   0.0179150    0.5580200    0.0076820    0.0496040    0.9878665    0.1471706
   0.0225560    0.5578590    0.0059650    0.1021806    0.9911354    0.0849107
   0.0482670    0.4145930    0.0171420   -0.0779492   -0.5373363   -0.8397581
   0.0500230    0.4139710    0.0161200   -0.5818636   -0.3365489   -0.7403848
   0.0520090    0.4128500    0.0149040   -0.5224287   -0.4677531   -0.7129342
   0.0541360    0.4115370    0.0146900   -0.2844341   -0.6963151   -0.6589708
   0.0565700    0.4110350    0.0148500   -0.1191452   -0.9670563   -0.2249590
   0.0589610    0.4107960    0.0154110   -0.0761296   -0.9921872   -0.0988375
   0.0613530    0.4110600    0.0160400   -0.1261031   -0.9588865   -0.2542334
   0.0637360    0.4109400    0.0162650   -0.0232927   -0.8748625   -0.4838109
   0.0660350    0.4101190    0.0156250    0.8070909    0.3981054   -0.4360235
   0.0683940    0.4096260    0.0153870   -0.7514733   -0.6153598    0.2379498
   0.0706990    0.4093970    0.0148280   -0.8421748   -0.4793996    0.2468149
   0.0728790    0.4088810    0.0137130   -0.8508687    0.0029143   -0.5253703
   0.0752510    0.4087630    0.0130950   -0.3957296   -0.6915520   -0.6042797
   0.0774220    0.4085060    0.0121160   -0.4063242   -0.5353718   -0.7404577
   0.0793360    0.4083470    0.0103920   -0.5841151   -0.5704104   -0.5774440
   0.0807480    0.4078460    0.0083920   -0.6995716   -0.6554596   -0.2845563
   0.0821090    0.4072250    0.0063240   -0.6961626   -0.6791702   -0.2325629
   0.0823900    0.4068790    0.0038390   -0.8027074   -0.5851620   -0.1150921
   0.0836340    0.4065340    0.0017620   -0.7132176   -0.5407505   -0.4459928
   0.0536300    0.4223230    0.0133330   -0.4461177   -0.6093589   -0.6554852
   0.0554030    0.4215230    0.0130060   -0.3242310   -0.4186365   -0.8483028
   0.0571580    0.4205960    0.0128870   -0.4992082   -0.2463168   -0.8307341
   0.0587140    0.4193240    0.0128760   -0.4486575   -0.2744735   -0.8505121
   0.0600140    0.4177290    0.0128690   -0.2548933   -0.3769721   -0.8904614
   0.0617280    0.4168900    0.0129950   -0.0687767   -0.4884756   -0.8698628
   0.0636990    0.4165260    0.0132540   -0.0470725   -0.6299120   -0.7752387
   0.0655350    0.4159630    0.0136660   -0.0700418   -0.6625118   -0.7457696
   0.0669270    0.4145970    0.0142400   -0.2394827   -0.5307182   -0.8130106
   0.0686930    0.4137800    0.0144500   -0.3853485   -0.4624462   -0.7985300
   0.0703320    0.4129120    0.0138060   -0.3605830   -0.5298196   -0.7676400
   0.0719470    0.4123780    0.0128110   -0.4038937   -0.5222130   -0.7511081
   0.0735630    0.4125000    0.0116820   -0.3633273   -0.5172843   -0.7748614
   0.0753740    0.4122860    0.0109500   -0.3729469   -0.5574698   -0.7417129
   0.0769200    0.4117480    0.0100550   -0.5876713   -0.6375756   -0.4981364
   0.0777460    0.4114710    0.0081930   -0.7068058   -0.6795695   -0.1964965
   0.0788550    0.4106090    0.0067230   -0.7106345   -0.6952762   -0.1076552
   0.0797080    0.4097890    0.0051230   -0.7233036   -0.6791731   -0.1247226
   0.0802840    0.4099130    0.0031610   -0.7275622   -0.6238028   -0.2855227
   0.0812270    0.4103500    0.0014470   -0.7052319   -0.6187104   -0.3461870
   0.0542210    0.4249180    0.0103870   -0.5044009   -0.7906886   -0.3469743
   0.0557840    0.4235680    0.0112040   -0.5015983   -0.7728311   -0.3887561
   0.0576080    0.4223500    0.0109660   -0.5579646   -0.7493618   -0.3565563
   0.0593760    0.4210090    0.0109480   -0.5145533   -0.7049221   -0.4881800
   0.0612400    0.4198500    0.0112400   -0.3591949   -0.7921117   -0.4934957
   0.0632450    0.4190100    0.0113180   -0.3421983   -0.8308811   -0.4387903
   0.0652510    0.4184070    0.0107870   -0.2934195   -0.8451299   -0.4468338
   0.0673400    0.4179790    0.0105620   -0.3442562   -0.8194937   -0.4581677
   0.0692800    0.4170600    0.0101670   -0.4512589   -0.7415635   -0.4964363
   0.0711670    0.4167900    0.0091740   -0.3207343   -0.7309609   -0.6023501
   0.0729980    0.4170260    0.0083180   -0.4683189   -0.7947704   -0.3860276
   0.0734320    0.4166310    0.0062640   -0.6452186   -0.7582540    0.0935086
   0.0736740    0.4159620    0.0042960   -0.6446588   -0.7642168   -0.0196893
   0.0742670    0.4160640    0.0021240   -0.5905211   -0.7968563   -0.1276901
   0.0556510    0.4239590    0.0079630   -0.3905141   -0.8725706    0.2934608
   0.0566340    0.4230100    0.0070760   -0.4506143   -0.8711191    0.1951878
   0.0577660    0.4221630    0.0065250   -0.4892331   -0.8460940    0.2116033
   0.0590700    0.4214160    0.0063880   -0.5214302   -0.8172285    0.2454550
   0.0604830    0.4208030    0.0064170   -0.3421602   -0.9329164    0.1122202
   0.0619360    0.4203790    0.0063560   -0.2536997   -0.9672627   -0.0062737
   0.0633780    0.4200450    0.0064210   -0.2166114   -0.9735352   -0.0728616
   0.0648280    0.4197640    0.0066120   -0.2158303   -0.9688193   -0.1216815
   0.0663620    0.4196080    0.0065950   -0.2430335   -0.9568174   -0.1594839
   0.0678630    0.4195320    0.0060820   -0.1826992   -0.9684179   -0.1696699
   0.0686630    0.4191160    0.0049660   -0.2438013   -0.9647260   -0.0993209
   0.0689610    0.4185910    0.0034750   -0.3774460   -0.9259897   -0.0088087
   0.0695940    0.4185150    0.0020540   -0.3965407   -0.9179751   -0.0087909
   0.0700250    0.4183560    0.0005650   -0.4011693   -0.8920278   -0.2082056
  -0.0514470    0.4425310    0.0366510   -0.7177472   -0.5296273    0.4520330
  -0.0495190    0.4398140    0.0367590   -0.7111821   -0.6139841    0.3424085
  -0.0471700    0.4375000    0.0369590   -0.6636052   -0.6902365    0.2884472
  -0.0446130    0.4354330    0.0369230   -0.5354441   -0.7914825    0.2947117
  -0.0419520    0.4335600    0.0366490   -0.4450832   -0.8055888    0.3910596
  -0.0391690    0.4319930    0.0362480   -0.4279963   -0.7806109    0.4554841
  -0.0362500    0.4307880    0.0357930   -0.3850541   -0.8341872    0.3947975
  -0.0333130    0.4295400    0.0354610   -0.3512236   -0.8755566    0.3317268
  -0.0304370    0.4279980    0.0354550   -0.3575812   -0.8890808    0.2857813
  -0.0274910    0.4270310    0.0357920   -0.3345675   -0.9162989    0.2201386
  -0.0244300    0.4269940    0.0365460   -0.3564083   -0.9295200    0.0946869
  -0.0214920    0.4266540    0.0379150   -0.3218815   -0.9423779   -0.0911929
  -0.0191100    0.4247480    0.0382140   -0.3235021   -0.8172481   -0.4769192
  -0.0166770    0.4227920    0.0370070   -0.1821951   -0.5409494   -0.8210839
  -0.0136380    0.4226570    0.0360660    0.0048677   -0.4259913   -0.9047142
  -0.0107330    0.4235820    0.0352410    0.3986131   -0.5353510   -0.7446522
  -0.0078360    0.4249100    0.0347830    0.5988343   -0.6156254   -0.5122527
  -0.0050190    0.4265030    0.0351160    0.6921359   -0.6845389   -0.2288107
  -0.0036420    0.4294060    0.0359610    0.5854840   -0.8087225   -0.0563592
  -0.0021350    0.4326370    0.0358440    0.1824278   -0.9832191   -0.0005833
   0.0000000    0.4347700    0.0346670    0.0590323   -0.7554393   -0.6525539
   0.0026380    0.4347390    0.0328120    0.2156627   -0.2537493   -0.9429215
   0.0052810    0.4334090    0.0315020    0.4264098   -0.0017045   -0.9045285
   0.0099720    0.4403390    0.0326210    0.4564538   -0.8485228    0.2676920
   0.0102860    0.4429600    0.0355030    0.3996706   -0.7350210    0.5477294
   0.0125140    0.4424420    0.0352490    0.1476468   -0.8704406    0.4696101
   0.0155540    0.4421100    0.0341230   -0.3862471   -0.8051438    0.4500629
   0.0181430    0.4405050    0.0330740   -0.3552841   -0.9030294    0.2414768
   0.0207610    0.4401950    0.0321630   -0.2243244   -0.9370344   -0.2676659
   0.0236810    0.4418190    0.0312870    0.3005677   -0.7852984   -0.5412629
   0.0253430    0.4428270    0.0288390    0.1154921   -0.7712736   -0.6259382
   0.0264050    0.4455300    0.0275970    0.2250968   -0.8421987   -0.4899315
   0.0296290    0.4448300    0.0274350    0.3040906   -0.9510214    0.0555620
   0.0318250    0.4441410    0.0251810    0.3249110   -0.8289965    0.4551898
   0.0336750    0.4426270    0.0228870    0.1489712   -0.5349602    0.8316400
   0.0341450    0.4392460    0.0224780    0.1432873   -0.2366993    0.9609590
   0.0351670    0.4362140    0.0213630    0.2142358   -0.2707979    0.9384943
   0.0362420    0.4330110    0.0207900    0.1455738   -0.1810426    0.9726417
   0.0360130    0.4297900    0.0211120    0.0898014    0.1502190    0.9845659
   0.0341550    0.4264880    0.0208750   -0.2877325    0.3121746    0.9054043
   0.0359980    0.4274580    0.0204840   -0.4406093    0.5156306    0.7348391
   0.0390600    0.4265210    0.0199220   -0.3954694   -0.0257815   -0.9181173
   0.0417090    0.4269340    0.0183600   -0.5320488   -0.2916763   -0.7948893
   0.0435040    0.4265680    0.0159460   -0.6808097   -0.7104425   -0.1782405
   0.0406870    0.4250430    0.0149330   -0.4750306   -0.2064182    0.8554165
   0.0377710    0.4237150    0.0146180   -0.2529068   -0.0634432    0.9654083
   0.0351450    0.4219060    0.0141860   -0.8731566   -0.4179017    0.2509098
   0.0364390    0.4219610    0.0128120   -0.4135071   -0.1910826   -0.8902243
   0.0399070    0.4234140    0.0128270   -0.2348479   -0.0633886   -0.9699631
   0.0425130    0.4243310    0.0114420   -0.2187287   -0.0643664   -0.9736605
   0.0450620    0.4259620    0.0103740   -0.4662365    0.0380696   -0.8838406
   0.0476200    0.4280060    0.0104390   -0.3166447    0.2703386   -0.9092047
  -0.0493850    0.4427680    0.0396950   -0.6749420   -0.3703291    0.6382081
  -0.0472720    0.4397860    0.0398980   -0.6565767   -0.4717937    0.5884877
  -0.0449470    0.4370110    0.0403520   -0.5879239   -0.6083775    0.5331250
  -0.0421330    0.4350150    0.0405310   -0.4954098   -0.7344308    0.4638756
  -0.0388970    0.4337240    0.0404320   -0.4566717   -0.7897751    0.4095195
  -0.0356600    0.4324250    0.0405650   -0.4913015   -0.7929422    0.3603686
  -0.0325910    0.4308340    0.0410850   -0.5267619   -0.8061464    0.2695364
  -0.0294730    0.4293400    0.0413070   -0.5481082   -0.8266563    0.1273451
  -0.0263100    0.4278920    0.0411810   -0.5822355   -0.8119273   -0.0421406
  -0.0232810    0.4261260    0.0411460   -0.4120915   -0.8921053   -0.1852801
  -0.0202200    0.4245350    0.0407100   -0.2504210   -0.9643049   -0.0860543
  -0.0173490    0.4227470    0.0395940   -0.3103977   -0.9445351    0.1072695
  -0.0145940    0.4212870    0.0381900   -0.1405915   -0.9899868   -0.0126587
  -0.0113060    0.4217900    0.0373800    0.0950272   -0.9791067   -0.1797775
  -0.0078800    0.4226370    0.0371040    0.2269303   -0.8627181   -0.4519072
  -0.0054450    0.4248390    0.0377320    0.4855334   -0.4649993   -0.7402924
  -0.0036670    0.4281710    0.0384880    0.7064347   -0.3229393   -0.6298097
  -0.0015580    0.4312250    0.0385750    0.5267955   -0.7559459   -0.3886288
   0.0016840    0.4325020    0.0383250   -0.3920749   -0.9189356    0.0428324
   0.0033540    0.4310010    0.0362160   -0.7913803   -0.5999877   -0.1171834
   0.0048170    0.4294530    0.0333940   -0.6125464   -0.3930905   -0.6857600
   0.0084750    0.4287900    0.0328060    0.6401277   -0.3135931   -0.7013529
   0.0106850    0.4299300    0.0344090    0.9303972    0.0542896   -0.3625102
   0.0097390    0.4336070    0.0348100    0.8815005   -0.1371641   -0.4518218
   0.0083200    0.4367340    0.0360360    0.9260973    0.2648107   -0.2687361
   0.0082460    0.4396720    0.0382760    0.9252679   -0.3792410   -0.0074548
   0.0095010    0.4426300    0.0400320    0.8400438   -0.5307183   -0.1125368
   0.0105500    0.4459280    0.0407170    0.6503824   -0.7595580   -0.0086203
   0.0140010    0.4461920    0.0400660   -0.2420957   -0.9259206    0.2899324
   0.0171070    0.4460590    0.0393360   -0.3194252   -0.9462086   -0.0515450
   0.0186980    0.4427940    0.0386540   -0.4234695   -0.8686283   -0.2572130
   0.0206070    0.4399220    0.0374270   -0.0026817   -0.9039303   -0.4276713
   0.0238120    0.4397840    0.0364750    0.3729244   -0.9112567   -0.1747530
   0.0265080    0.4418230    0.0356580    0.4049571   -0.9127489   -0.0538434
   0.0285650    0.4437490    0.0334350    0.3477202   -0.9290585   -0.1262571
   0.0305360    0.4452790    0.0308200    0.3419042   -0.9212904    0.1852713
   0.0323500    0.4457040    0.0278860    0.2318931   -0.8492398    0.4743599
   0.0342690    0.4448790    0.0249590    0.1419556   -0.9186800    0.3686132
   0.0371390    0.4437990    0.0232200    0.3202939   -0.6886111    0.6505586
   0.0384370    0.4411900    0.0211980    0.5837256   -0.3370667    0.7386816
   0.0390690    0.4376070    0.0203370    0.4753537   -0.0328101    0.8791828
   0.0394540    0.4338780    0.0203270    0.2979293    0.1605831    0.9409841
   0.0395540    0.4301370    0.0208200    0.0962325    0.2412774    0.9656731
   0.0391520    0.4264700    0.0213760   -0.0114262    0.2362240    0.9716314
   0.0377160    0.4230910    0.0212580   -0.7566716    0.2252266    0.6137761
   0.0378520    0.4207510    0.0200520   -0.5382874   -0.6677857   -0.5141098
   0.0413940    0.4223830    0.0192560   -0.8443711   -0.4431426   -0.3011016
   0.0421350    0.4220760    0.0160880   -0.8357591   -0.5031998    0.2197652
   0.0397710    0.4199590    0.0146030    0.0765176   -0.8305033    0.5517331
   0.0368070    0.4181620    0.0139860   -0.0594150   -0.9822112    0.1781323
   0.0392850    0.4181740    0.0133720   -0.1955551   -0.8075187   -0.5564816
   0.0420520    0.4181670    0.0118480    0.0150527   -0.5680140   -0.8228812
   0.0444640    0.4206940    0.0122500   -0.2114539   -0.5480154   -0.8092999
   0.0464430    0.4229570    0.0112060   -0.8440913   -0.2744797   -0.4606199
   0.0477340    0.4253260    0.0088140   -0.6530019    0.4546068   -0.6057402
  -0.0460060    0.4419110    0.0420960   -0.5544137   -0.2209130    0.8023857
  -0.0437110    0.4394860    0.0429380   -0.5880722   -0.2692817    0.7626653
  -0.0408650    0.4379120    0.0439050   -0.5191386   -0.4543333    0.7239312
