NORM_ASCII
5434 9510
  -0.1044580    0.1286230   -0.0000180   -0.5288990   -0.8486843   -0.0008885
  -0.1080090    0.1313060   -0.0000190   -0.9661053   -0.2581465   -0.0009640
  -0.0919360    0.1561170    0.0109470   -0.9459757    0.0879741   -0.3120746
  -0.0893230    0.1595160    0.0098010   -0.8149561    0.2393785   -0.5277731
  -0.0883220    0.1592200    0.0066640   -0.4875452    0.4926943   -0.7207995
  -0.0991780    0.1569630    0.0218680   -0.6709267   -0.6745091   -0.3080501
  -0.1037800    0.1587510    0.0258580   -0.5118513   -0.8143528    0.2735649
  -0.1041730    0.1616340    0.0251730   -0.8810284    0.3303183   -0.3386426
  -0.0929420    0.1605360    0.0120210   -0.6560342    0.0422874   -0.7535455
  -0.0841380    0.1429560    0.0044160    0.8749648   -0.2329977   -0.4244393
  -0.0837960    0.1421960    0.0057870    0.0969171   -0.9162332   -0.3887463
  -0.0861970    0.1443660    0.0046020    0.3131062   -0.8924673   -0.3247564
  -0.0857750    0.1547590    0.0032190    0.6503647    0.2246588   -0.7256405
  -0.0822020    0.1496740    0.0090940    0.8762185   -0.1636466    0.4532780
  -0.0824630    0.1480310    0.0103590    0.9242621    0.0290579    0.3806509
  -0.0785550    0.1616170    0.0056670   -0.9520749   -0.1441834   -0.2697490
  -0.0796970    0.1672410    0.0072250   -0.5836028    0.7425493   -0.3286765
  -0.0765250    0.1536910    0.0054840   -0.9516505   -0.1474079   -0.2695035
  -0.0759830    0.1478350    0.0042770   -0.7690291   -0.6380849   -0.0379726
  -0.0769630    0.1489050    0.0081290   -0.8489956   -0.4865254   -0.2061540
  -0.0803440    0.1618140    0.0087700   -0.4093683   -0.0040185   -0.9123604
  -0.0802070    0.1658410    0.0094170   -0.2419318   -0.0186795   -0.9701134
  -0.0782210    0.1539970    0.0083880   -0.6660003   -0.6054208   -0.4357859
  -0.0877330    0.1643610    0.0086890   -0.7167678    0.4874074   -0.4986761
  -0.0500550    0.1492170   -0.0069110    0.6070517   -0.7725878   -0.1860008
  -0.0537680    0.1492110   -0.0140820    0.5927277   -0.6445555   -0.4829307
  -0.0596600    0.1486610   -0.0175700    0.3206986   -0.5931821   -0.7384358
  -0.0722570    0.1454740   -0.0041560   -0.1905486   -0.9815455    0.0161175
  -0.0726060    0.1456380   -0.0122330   -0.2423924   -0.9554126   -0.1686197
  -0.0689150    0.1472150   -0.0176640   -0.0604940   -0.6900385   -0.7212401
  -0.0940210    0.1520880   -0.0042800   -0.6911060    0.6254723   -0.3621560
  -0.0969660    0.1484890   -0.0036150   -0.7986619    0.2665038   -0.5395507
  -0.0993760    0.1290060   -0.0031110    0.6132899   -0.6582531   -0.4365527
  -0.0493200    0.1526140   -0.0082910    0.9537602    0.0731361   -0.2915349
  -0.0510760    0.1543100   -0.0088760    0.8506740    0.3976585   -0.3438336
  -0.0517780    0.1609180   -0.0085670    0.9237009   -0.0372829   -0.3812960
  -0.0510590    0.1646820   -0.0094760    0.9413958   -0.0811445   -0.3273980
  -0.0518120    0.1682490   -0.0096500    0.6677729    0.6611921   -0.3419128
  -0.0556310    0.1639930   -0.0160340    0.6064550   -0.1875827   -0.7726740
  -0.0562340    0.1677380   -0.0162550    0.4017318    0.7464384   -0.5305104
  -0.0570000    0.1609010   -0.0151470    0.5754392   -0.2009248   -0.7927793
  -0.0559330    0.1548880   -0.0145870    0.5677065    0.3053219   -0.7645180
  -0.0539890    0.1527560   -0.0149600    0.6196134    0.2558023   -0.7420542
  -0.0624100    0.1673970   -0.0192490    0.2079734    0.5162799   -0.8307841
  -0.0610090    0.1631380   -0.0183620    0.1970997   -0.3235198   -0.9254656
  -0.0613550    0.1606410   -0.0166070    0.2307907   -0.2826047   -0.9310587
  -0.0616450    0.1559360   -0.0165310    0.1863897    0.1916325   -0.9636057
  -0.0611180    0.1525400   -0.0181710    0.2029772    0.1907141   -0.9604314
  -0.0703360    0.1664290   -0.0193670   -0.1564295    0.4498342   -0.8793060
  -0.0687820    0.1637140   -0.0192470   -0.0731764   -0.2207750   -0.9725758
  -0.0703350    0.1602030   -0.0174450    0.0241711   -0.2997345   -0.9537164
  -0.0708720    0.1543940   -0.0173200   -0.1486695    0.0061617   -0.9888677
  -0.0705880    0.1514070   -0.0183000   -0.2424823   -0.0780521   -0.9670110
  -0.0752570    0.1458240   -0.0137380   -0.6529176   -0.5328239   -0.5383283
  -0.0753560    0.1527040   -0.0163770   -0.0358582   -0.5022010   -0.8640071
  -0.0746370    0.1606330   -0.0177840    0.1386223    0.0222914   -0.9900944
  -0.0759310    0.1639790   -0.0171860   -0.1992339    0.2216355   -0.9545594
  -0.0807020    0.1519170   -0.0147540    0.0561575   -0.9789562   -0.1961915
  -0.0784670    0.1543450   -0.0180880   -0.0910537   -0.6379636   -0.7646644
  -0.0803840    0.1600280   -0.0216290    0.0336213   -0.0733366   -0.9967404
  -0.0816150    0.1644980   -0.0172260   -0.1842769    0.6876838   -0.7022343
  -0.0779750    0.1669940   -0.0147800   -0.2194846    0.8979096   -0.3815558
  -0.0815250    0.1659350   -0.0121770   -0.1524268    0.9246240   -0.3490509
  -0.0841500    0.1569430   -0.0205400    0.0534626    0.2185680   -0.9743561
  -0.0849610    0.1513080   -0.0186730   -0.4391804   -0.6589479   -0.6106621
  -0.0838300    0.1497130   -0.0213570    0.4831165   -0.1168295   -0.8677265
  -0.0867070    0.1609630   -0.0183340    0.2172509    0.6336416   -0.7424960
  -0.0903580    0.1603440   -0.0210100   -0.9758119    0.0859343    0.2010136
  -0.0875550    0.1568310   -0.0227190    0.1032450    0.0085496   -0.9946192
  -0.0887510    0.1549840   -0.0207180   -0.7906117   -0.5343773   -0.2989551
  -0.0882050    0.1664270   -0.0138140   -0.2974139    0.9492372    0.1024389
  -0.0861550    0.1634630   -0.0158810    0.2131784    0.6739251   -0.7073754
  -0.0995930    0.1645790   -0.0300330    0.4506024    0.3584821   -0.8175867
  -0.0894170    0.1618950   -0.0183680    0.5047587    0.2657657   -0.8213326
  -0.0889420    0.1573410   -0.0199660   -0.1143278   -0.5753166   -0.8099012
  -0.0869490    0.1542190   -0.0148380   -0.2147204   -0.6385462   -0.7390223
  -0.1024360    0.1606750   -0.0332770   -0.4863763   -0.3660797   -0.7933623
  -0.0937080    0.1580060   -0.0182100    0.3265504   -0.6504398   -0.6857791
  -0.0924300    0.1473420   -0.0109150   -0.8520738    0.1135415   -0.5109584
  -0.0887470    0.1489680   -0.0133620   -0.0228789   -0.0033184   -0.9997327
  -0.0918910    0.1442460   -0.0147180   -0.0238868    0.2254740   -0.9739563
  -0.0942650    0.1449530   -0.0088600   -0.8911609    0.1249049   -0.4361548
  -0.0939950    0.1414840   -0.0083840   -0.7810895   -0.4711939   -0.4097261
  -0.0912050    0.1392040   -0.0145080   -0.6216548   -0.6630368   -0.4170463
  -0.0905200    0.1516420   -0.0071670   -0.8712862    0.4477170   -0.2010220
  -0.0909140    0.1549720   -0.0089820   -0.9334597    0.2847875    0.2180574
  -0.0925030    0.1489420   -0.0076410   -0.9059466    0.3393479   -0.2531874
  -0.0962610    0.1450950   -0.0035160   -0.8178466    0.0952415   -0.5674998
  -0.0960170    0.1417990   -0.0036680   -0.6587808    0.0361453   -0.7514662
  -0.0949710    0.1402740   -0.0043010    0.1069012   -0.9422164   -0.3174909
  -0.0903810    0.1397450   -0.0065950    0.0523842   -0.9642871    0.2596272
  -0.0846030    0.1403610   -0.0115000    0.5570982   -0.7797054   -0.2858338
  -0.1073870    0.1324700   -0.0040350   -0.8348880    0.0005077   -0.5504196
  -0.0996550    0.1357930   -0.0039910   -0.1361234    0.2117614   -0.9677952
  -0.0966380    0.1343460   -0.0040060   -0.0157646   -0.0466010   -0.9987892
  -0.1055050    0.1299420   -0.0046990   -0.2268839   -0.6908087   -0.6865180
  -0.0919360    0.1561170   -0.0109470   -0.9459757    0.0879741    0.3120746
  -0.0893230    0.1595160   -0.0098010   -0.8149561    0.2393785    0.5277731
  -0.0883220    0.1592200   -0.0066640   -0.4874698    0.4927395    0.7208196
  -0.0991780    0.1569630   -0.0218680   -0.6709267   -0.6745091    0.3080501
  -0.1037800    0.1587510   -0.0258580   -0.5118513   -0.8143528   -0.2735649
  -0.1041730    0.1616340   -0.0251730   -0.8810284    0.3303183    0.3386426
  -0.0929420    0.1605360   -0.0120210   -0.6560342    0.0422874    0.7535455
  -0.0841380    0.1429560   -0.0044160    0.8749886   -0.2330985    0.4243347
  -0.0837960    0.1421960   -0.0057870    0.0970328   -0.9162378    0.3887067
  -0.0861970    0.1443660   -0.0046020    0.3130821   -0.8925132    0.3246535
  -0.0857750    0.1547590   -0.0032190    0.6505282    0.2247551    0.7254641
  -0.0822020    0.1496740   -0.0090940    0.8762185   -0.1636466   -0.4532780
  -0.0824630    0.1480310   -0.0103590    0.9242621    0.0290579   -0.3806509
  -0.0785550    0.1616170   -0.0056670   -0.9520982   -0.1442087    0.2696531
  -0.0796970    0.1672410   -0.0072250   -0.5836602    0.7425654    0.3285383
  -0.0765250    0.1536910   -0.0054840   -0.9516585   -0.1474175    0.2694703
  -0.0759830    0.1478350   -0.0042770   -0.7690290   -0.6380852    0.0379693
  -0.0769630    0.1489050   -0.0081290   -0.8489956   -0.4865254    0.2061540
  -0.0803440    0.1618140   -0.0087700   -0.4093683   -0.0040185    0.9123604
  -0.0802070    0.1658410   -0.0094170   -0.2419318   -0.0186795    0.9701134
  -0.0782210    0.1539970   -0.0083880   -0.6660003   -0.6054208    0.4357859
  -0.0877330    0.1643610   -0.0086890   -0.7167678    0.4874074    0.4986761
  -0.0447440    0.1278720    0.0000210    0.8073844   -0.5900257    0.0003569
  -0.0455050    0.1279770    0.0070290    0.6501676   -0.7342068    0.1955059
  -0.0581280    0.1251610    0.0000030    0.2332248   -0.9724228    0.0000154
  -0.0496410    0.1276170    0.0143210    0.6170096   -0.6065125    0.5014397
  -0.0561610    0.1264990    0.0178690    0.3453584   -0.5695365    0.7458926
  -0.0699490    0.1220670    0.0042270   -0.3317390   -0.9432330   -0.0161472
  -0.0701270    0.1222730    0.0000020   -0.3574123   -0.9339467    0.0000476
  -0.0703500    0.1222000    0.0124410   -0.2947177   -0.9457519    0.1367291
  -0.0663580    0.1241510    0.0179650   -0.0038926   -0.6915362    0.7223313
  -0.0954640    0.1261180    0.0000040   -0.9262501    0.3769095    0.0002480
  -0.0913640    0.1319000    0.0043530   -0.7182532    0.5602859    0.4125434
  -0.0908490    0.1360920    0.0000040   -0.5955184    0.8033417    0.0000355
  -0.0943350    0.1282190    0.0036760   -0.8003965    0.2612323    0.5395582
  -0.0916110    0.1160770    0.0000000    0.6858945   -0.7277010    0.0000329
  -0.0966560    0.1083870    0.0031640    0.6177957   -0.6541070    0.4364316
  -0.0981890    0.1077120   -0.0000030    0.2376681   -0.9713463   -0.0004391
  -0.0449430    0.1314930    0.0084320    0.9376940    0.1460900    0.3152582
  -0.0442010    0.1292960    0.0000230    0.9999237    0.0123475    0.0002489
  -0.0456580    0.1329110    0.0000230    0.8844519    0.4666314    0.0001872
  -0.0470270    0.1330460    0.0090270    0.8019462    0.4718415    0.3663986
  -0.0468910    0.1402370    0.0000250    0.9938470    0.1107612    0.0003812
  -0.0480110    0.1391970    0.0087130    0.9207471   -0.0117334    0.3899835
  -0.0468920    0.1434310    0.0000260    0.9999824    0.0059277    0.0002136
  -0.0473960    0.1430480    0.0096370    0.9434373   -0.0523778    0.3273876
  -0.0475520    0.1469260    0.0000270    0.7948088    0.6068599    0.0001824
  -0.0482710    0.1466480    0.0098140    0.6464730    0.6817270    0.3425216
  -0.0520220    0.1421930    0.0163070    0.6122359   -0.1689254    0.7724192
  -0.0527500    0.1459790    0.0165320    0.3771447    0.7587608    0.5310782
  -0.0533180    0.1390030    0.0154050    0.5759032   -0.2091239    0.7903181
  -0.0524790    0.1331700    0.0148350    0.5205435    0.3288571    0.7879642
  -0.0501530    0.1311920    0.0152150    0.5633578    0.3080368    0.7666429
  -0.0590160    0.1454230    0.0195760    0.1907639    0.5223411    0.8311251
  -0.0574610    0.1411410    0.0186740    0.2077478   -0.3172641    0.9253023
  -0.0577360    0.1385910    0.0168890    0.2425342   -0.2898941    0.9258178
  -0.0589190    0.1336890    0.0168120    0.1703229    0.1679569    0.9709689
  -0.0580770    0.1302950    0.0184800    0.1696977    0.2054776    0.9638369
  -0.0670420    0.1441710    0.0196960   -0.1712601    0.4446542    0.8791773
  -0.0653800    0.1414630    0.0195740   -0.0658658   -0.2227781    0.9726416
  -0.0668490    0.1378410    0.0177420    0.0341057   -0.2987198    0.9537313
  -0.0672170    0.1319170    0.0176150   -0.1668973    0.0496585    0.9847230
  -0.0685380    0.1282440    0.0186110   -0.2517243   -0.0491900    0.9665481
  -0.0733150    0.1221370    0.0139720   -0.7801508   -0.4551803    0.4291569
  -0.0717220    0.1300470    0.0166560   -0.0238374   -0.4631064    0.8859821
  -0.0712350    0.1381330    0.0180860    0.1377924    0.0266491    0.9901026
  -0.0726530    0.1414910    0.0174780   -0.2064587    0.2153484    0.9544631
  -0.0771320    0.1290670    0.0150050   -0.0850763   -0.9741815    0.2091230
  -0.0749350    0.1316110    0.0183960   -0.0701276   -0.6404792    0.7647670
  -0.0770570    0.1373230    0.0219970    0.0505494   -0.0322965    0.9981992
  -0.0784460    0.1418260    0.0175190    0.0059201    0.7100741    0.7041021
  -0.0748240    0.1444870    0.0150320   -0.2490659    0.8902024    0.3814523
  -0.0783990    0.1432900    0.0123850    0.0651731    0.9356866    0.3467607
  -0.0813580    0.1369100    0.0208900    0.1317148    0.2838415    0.9497817
  -0.0821450    0.1311730    0.0189910   -0.5148425   -0.5837700    0.6278134
  -0.0809840    0.1295600    0.0217200    0.3108213   -0.1079770    0.9443151
  -0.0839840    0.1409800    0.0186460    0.3007044    0.6264951    0.7190833
  -0.0876930    0.1403240    0.0213680   -0.9763805    0.0796801   -0.2008289
  -0.0848200    0.1367720    0.0231050    0.1031733    0.0092861    0.9946200
  -0.0860240    0.1348850    0.0210710   -0.7869759   -0.5395564    0.2992454
  -0.0855440    0.1465260    0.0140490   -0.1162044    0.9839570   -0.1353706
  -0.0834390    0.1435270    0.0161510    0.4099706    0.6527151    0.6370926
  -0.0927970    0.1459280    0.0251320    0.4132322    0.3953175    0.8203434
  -0.0867470    0.1419080    0.0186800    0.4958768    0.3012619    0.8144615
  -0.0862330    0.1372800    0.0203050   -0.2319813   -0.4877230    0.8416121
  -0.0841860    0.1341200    0.0150910   -0.3586007   -0.5934861    0.7205413
  -0.0956630    0.1419360    0.0278470   -0.4803598   -0.4552896    0.7496438
  -0.0926590    0.1391520    0.0185200    0.2753057   -0.5940940    0.7558168
  -0.0897140    0.1270860    0.0111010   -0.8529239    0.1052029    0.5113249
  -0.0859790    0.1287660    0.0135890   -0.0868664    0.0206287    0.9960064
  -0.0891450    0.1239410    0.0149680   -0.2931489    0.2886698    0.9114458
  -0.0915640    0.1246430    0.0090110   -0.8919588    0.1189032    0.4362013
  -0.0912660    0.1211170    0.0085260   -0.7778412   -0.4764122    0.4098713
  -0.0884150    0.1188180    0.0147550   -0.7415483   -0.5679919    0.3570593
  -0.0878000    0.1314730    0.0072890   -0.8922624    0.3951578    0.2184448
  -0.0882870    0.1361610    0.0091350   -0.9028421    0.3660644   -0.2255503
  -0.0897990    0.1287130    0.0077710   -0.9127247    0.3275608    0.2442080
  -0.0935950    0.1247720    0.0035760   -0.8187947    0.0892268    0.5671100
  -0.0933250    0.1214220    0.0037310   -0.6600539    0.0320883    0.7505326
  -0.0922510    0.1198780    0.0043740   -0.0774723   -0.9079766    0.4117968
  -0.0875800    0.1193740    0.0067080   -0.2811732   -0.9526393   -0.1158448
  -0.0814950    0.1156780    0.0116960    0.2345589   -0.9082292    0.3465572
  -0.0987700    0.1212860   -0.0000140   -0.8971134    0.4417996   -0.0008405
  -0.1039420    0.1146940   -0.0000180   -0.7709839    0.6368532   -0.0013792
  -0.1048260    0.1118520    0.0041040   -0.8358847   -0.0047602    0.5488844
  -0.0969850    0.1152870    0.0040590   -0.1383697    0.2115891    0.9675143
  -0.0939070    0.1138380    0.0040740   -0.0151614   -0.0468118    0.9987887
  -0.1028960    0.1092950    0.0047790   -0.2227077   -0.6926337    0.6860465
  -0.1018220    0.1079600   -0.0000180   -0.5230250   -0.8523169   -0.0008744
  -0.1054510    0.1106630   -0.0000190   -0.9643419   -0.2646578   -0.0009483
  -0.0893340    0.1373170    0.0111330   -0.9288551    0.1124152   -0.3529746
  -0.0866350    0.1394900    0.0099670   -0.7661103    0.3282237   -0.5525796
  -0.0856150    0.1391960    0.0067770   -0.4029269    0.5441985   -0.7358654
  -0.0982150    0.1380510    0.0222400   -0.8753539   -0.2990010    0.3799395
  -0.0970170    0.1399690    0.0216390   -0.0871719   -0.3719774    0.9241395
  -0.0974350    0.1428990    0.0210660   -0.8014999    0.5967087    0.0391989
  -0.0903860    0.1418040    0.0122260   -0.6141084    0.2307910   -0.7547227
  -0.0839580    0.1220530    0.0000020   -0.1262492   -0.9919986   -0.0001266
  -0.0810390    0.1183210    0.0044910    0.9025560   -0.3279366   -0.2790166
  -0.0806870    0.1175500    0.0058850    0.1170664   -0.9131705   -0.3904039
  -0.0831420    0.1197390    0.0046800   -0.1222707   -0.9504756   -0.2857377
  -0.0859570    0.1220990    0.0000010    0.3593762   -0.9331928   -0.0001743
  -0.0829810    0.1302780    0.0000030    0.9687347    0.2480987   -0.0002612
  -0.0829960    0.1346770    0.0032740    0.6499704    0.2396626   -0.7211798
  -0.0785870    0.1267350    0.0092480    0.7729135   -0.3905064    0.5001095
  -0.0795820    0.1278590    0.0105350    0.9409083   -0.1053561    0.3218565
  -0.0746080    0.1391610    0.0000070   -0.9842786   -0.1766227   -0.0001660
  -0.0752470    0.1390010    0.0057630   -0.9472475   -0.1729914   -0.2698077
  -0.0765810    0.1446800    0.0073470   -0.5421871    0.7551553   -0.3684748
  -0.0749850    0.1441220    0.0000080   -0.7617212    0.6479049   -0.0002289
  -0.0725000    0.1310900    0.0000040   -0.9949774   -0.1000998   -0.0000842
  -0.0729400    0.1310120    0.0055770   -0.9657776   -0.1516448   -0.2104222
  -0.0742190    0.1240100    0.0000020   -0.9374001   -0.3482543    0.0001136
  -0.0722100    0.1250760    0.0043500   -0.8376591   -0.5376325    0.0963246
  -0.0732390    0.1261310    0.0082670   -0.8411571   -0.4279597   -0.3306133
  -0.0770720    0.1391400    0.0089190   -0.4061442   -0.0144546   -0.9136947
  -0.0770560    0.1432390    0.0095770   -0.2468261   -0.0378464   -0.9683205
  -0.0746740    0.1312650    0.0085300   -0.6770549   -0.5319606   -0.5085416
  -0.0850500    0.1444280    0.0088370   -0.6445302    0.5377907   -0.5434722
  -0.0612680    0.1455240    0.0000080   -0.0836390    0.9964961    0.0000000
  -0.0455050    0.1279770   -0.0070290    0.6502675   -0.7341825   -0.1952647
  -0.0496410    0.1276170   -0.0143210    0.6170067   -0.6065183   -0.5014362
  -0.0561610    0.1264990   -0.0178690    0.3453585   -0.5695410   -0.7458891
  -0.0699490    0.1220670   -0.0042270   -0.3317375   -0.9432338    0.0161320
  -0.0703500    0.1222000   -0.0124410   -0.2947118   -0.9457542   -0.1367260
  -0.0663580    0.1241510   -0.0179650   -0.0038861   -0.6915402   -0.7223275
  -0.0913640    0.1319000   -0.0043530   -0.7181924    0.5604832   -0.4123812
  -0.0943350    0.1282190   -0.0036760   -0.8004718    0.2612168   -0.5394541
  -0.0966560    0.1083870   -0.0031640    0.6177912   -0.6541042   -0.4364422
  -0.0449430    0.1314930   -0.0084320    0.9377831    0.1462069   -0.3149386
  -0.0470270    0.1330460   -0.0090270    0.8020508    0.4719147   -0.3660752
  -0.0480110    0.1391970   -0.0087130    0.9208657   -0.0117146   -0.3897040
  -0.0473960    0.1430480   -0.0096370    0.9434937   -0.0523593   -0.3272280
  -0.0482710    0.1466480   -0.0098140    0.6465117    0.6817593   -0.3423841
  -0.0520220    0.1421930   -0.0163070    0.6122359   -0.1689254   -0.7724192
  -0.0527500    0.1459790   -0.0165320    0.3771383    0.7587670   -0.5310737
  -0.0533180    0.1390030   -0.0154050    0.5759032   -0.2091239   -0.7903181
  -0.0524790    0.1331700   -0.0148350    0.5205435    0.3288571   -0.7879642
  -0.0501530    0.1311920   -0.0152150    0.5633578    0.3080368   -0.7666429
  -0.0574610    0.1411410   -0.0186740    0.2077478   -0.3172641   -0.9253023
  -0.0590160    0.1454230   -0.0195760    0.1907637    0.5223451   -0.8311226
  -0.0577360    0.1385910   -0.0168890    0.2425342   -0.2898941   -0.9258178
  -0.0589190    0.1336890   -0.0168120    0.1703229    0.1679569   -0.9709689
  -0.0580770    0.1302950   -0.0184800    0.1696977    0.2054776   -0.9638369
  -0.0653800    0.1414630   -0.0195740   -0.0658658   -0.2227781   -0.9726416
  -0.0670420    0.1441710   -0.0196960   -0.1712560    0.4446612   -0.8791745
  -0.0668490    0.1378410   -0.0177420    0.0341057   -0.2987198   -0.9537313
  -0.0672170    0.1319170   -0.0176150   -0.1668973    0.0496585   -0.9847230
  -0.0685380    0.1282440   -0.0186110   -0.2517243   -0.0491900   -0.9665481
  -0.0733150    0.1221370   -0.0139720   -0.7801508   -0.4551803   -0.4291569
  -0.0717220    0.1300470   -0.0166560   -0.0238374   -0.4631064   -0.8859821
  -0.0712350    0.1381330   -0.0180860    0.1377924    0.0266491   -0.9901026
  -0.0726530    0.1414910   -0.0174780   -0.2064587    0.2153484   -0.9544631
  -0.0749350    0.1316110   -0.0183960   -0.0701276   -0.6404792   -0.7647670
  -0.0771320    0.1290670   -0.0150050   -0.0850763   -0.9741815   -0.2091230
  -0.0770570    0.1373230   -0.0219970    0.0505494   -0.0322965   -0.9981992
  -0.0784460    0.1418260   -0.0175190    0.0059201    0.7100741   -0.7041021
  -0.0783990    0.1432900   -0.0123850    0.0651731    0.9356866   -0.3467607
  -0.0748240    0.1444870   -0.0150320   -0.2490560    0.8902086   -0.3814444
  -0.0821450    0.1311730   -0.0189910   -0.5148425   -0.5837700   -0.6278134
  -0.0813580    0.1369100   -0.0208900    0.1317148    0.2838415   -0.9497817
  -0.0809840    0.1295600   -0.0217200    0.3108213   -0.1079770   -0.9443151
  -0.0839840    0.1409800   -0.0186460    0.3007044    0.6264951   -0.7190833
  -0.0848200    0.1367720   -0.0231050    0.1031733    0.0092861   -0.9946200
  -0.0876930    0.1403240   -0.0213680   -0.9763805    0.0796801    0.2008289
  -0.0860240    0.1348850   -0.0210710   -0.7869759   -0.5395564   -0.2992454
  -0.0834390    0.1435270   -0.0161510    0.4099706    0.6527151   -0.6370926
  -0.0855440    0.1465260   -0.0140490   -0.1162044    0.9839570    0.1353706
  -0.0867470    0.1419080   -0.0186800    0.4958768    0.3012619   -0.8144615
  -0.0927970    0.1459280   -0.0251320    0.4132322    0.3953175   -0.8203434
  -0.0841860    0.1341200   -0.0150910   -0.3586007   -0.5934861   -0.7205413
  -0.0862330    0.1372800   -0.0203050   -0.2319813   -0.4877230   -0.8416121
  -0.0926590    0.1391520   -0.0185200    0.2753057   -0.5940940   -0.7558168
  -0.0956630    0.1419360   -0.0278470   -0.4803598   -0.4552896   -0.7496438
  -0.0859790    0.1287660   -0.0135890   -0.0868664    0.0206287   -0.9960064
  -0.0897140    0.1270860   -0.0111010   -0.8529239    0.1052029   -0.5113249
  -0.0891450    0.1239410   -0.0149680   -0.2931489    0.2886698   -0.9114458
  -0.0912660    0.1211170   -0.0085260   -0.7778412   -0.4764122   -0.4098713
  -0.0915640    0.1246430   -0.0090110   -0.8919588    0.1189032   -0.4362013
  -0.0884150    0.1188180   -0.0147550   -0.7415483   -0.5679919   -0.3570593
  -0.0878000    0.1314730   -0.0072890   -0.8922169    0.3953354   -0.2183093
  -0.0882870    0.1361610   -0.0091350   -0.9028294    0.3660537    0.2256185
  -0.0897990    0.1287130   -0.0077710   -0.9127247    0.3275608   -0.2442080
  -0.0935950    0.1247720   -0.0035760   -0.8184788    0.0898659   -0.5674651
  -0.0933250    0.1214220   -0.0037310   -0.6589555    0.0317800   -0.7515103
  -0.0875800    0.1193740   -0.0067080   -0.2811732   -0.9526393    0.1158448
  -0.0922510    0.1198780   -0.0043740   -0.0774723   -0.9079766   -0.4117968
  -0.0814950    0.1156780   -0.0116960    0.2345589   -0.9082292   -0.3465572
  -0.0969850    0.1152870   -0.0040590   -0.1375930    0.2108249   -0.9677918
  -0.1048260    0.1118520   -0.0041040   -0.8348945   -0.0050748   -0.5503866
  -0.0939070    0.1138380   -0.0040740   -0.0151614   -0.0468118   -0.9987887
  -0.1028960    0.1092950   -0.0047790   -0.2220135   -0.6923066   -0.6866015
  -0.0866350    0.1394900   -0.0099670   -0.7661103    0.3282237    0.5525796
  -0.0893340    0.1373170   -0.0111330   -0.9288551    0.1124152    0.3529746
  -0.0856150    0.1391960   -0.0067770   -0.4028608    0.5442359    0.7358739
  -0.0974350    0.1428990   -0.0210660   -0.8014999    0.5967087   -0.0391989
  -0.0970170    0.1399690   -0.0216390   -0.0871719   -0.3719774   -0.9241395
  -0.0982150    0.1380510   -0.0222400   -0.8753539   -0.2990010   -0.3799395
  -0.0903860    0.1418040   -0.0122260   -0.6141084    0.2307910    0.7547227
  -0.0806870    0.1175500   -0.0058850    0.1171852   -0.9131730    0.3903622
  -0.0810390    0.1183210   -0.0044910    0.9025760   -0.3279796    0.2789012
  -0.0831420    0.1197390   -0.0046800   -0.1223661   -0.9505072    0.2855915
  -0.0829960    0.1346770   -0.0032740    0.6501292    0.2397422    0.7210102
  -0.0795820    0.1278590   -0.0105350    0.9409083   -0.1053561   -0.3218565
  -0.0785870    0.1267350   -0.0092480    0.7729135   -0.3905064   -0.5001095
  -0.0765810    0.1446800   -0.0073470   -0.5422450    0.7551871    0.3683243
  -0.0752470    0.1390010   -0.0057630   -0.9472719   -0.1730241    0.2697009
  -0.0729400    0.1310120   -0.0055770   -0.9657760   -0.1516387    0.2104337
  -0.0722100    0.1250760   -0.0043500   -0.8376761   -0.5376276   -0.0962045
  -0.0732390    0.1261310   -0.0082670   -0.8411571   -0.4279597    0.3306133
  -0.0770560    0.1432390   -0.0095770   -0.2468261   -0.0378464    0.9683205
  -0.0770720    0.1391400   -0.0089190   -0.4061442   -0.0144546    0.9136947
  -0.0746740    0.1312650   -0.0085300   -0.6770549   -0.5319606    0.5085416
  -0.0850500    0.1444280   -0.0088370   -0.6445302    0.5377907    0.5434722
  -0.0376340    0.1030120    0.0000220    0.8945449   -0.4469780    0.0003627
  -0.0384150    0.1030400    0.0071340    0.7604929   -0.6169539    0.2025301
  -0.0506600    0.0980990    0.0000030    0.3909634   -0.9204062    0.0000164
  -0.0425130    0.1020870    0.0145360    0.7040641   -0.4974895    0.5067523
  -0.0488900    0.0999330    0.0181370    0.4304559   -0.5031686    0.7493524
  -0.0620560    0.0929320    0.0042900   -0.2260981   -0.9739267   -0.0186125
  -0.0622670    0.0931520    0.0000030   -0.2697527   -0.9629296    0.0000539
  -0.0624790    0.0930380    0.0126280   -0.1935803   -0.9695464    0.1500219
  -0.0587710    0.0958550    0.0182340    0.0986050   -0.6607060    0.7441402
  -0.0883130    0.0944810    0.0000040   -0.9782735    0.2073184    0.0002206
  -0.0850880    0.1018500    0.0044190   -0.8093025    0.4010206    0.4291992
  -0.0852180    0.1068780    0.0000050   -0.7365717    0.6763595    0.0000484
  -0.0875030    0.0971130    0.0037310   -0.8328752    0.1249910    0.5391624
  -0.0828910    0.0830820    0.0000000    0.8169865   -0.5766568    0.0000395
  -0.0867710    0.0733350    0.0032110    0.7164642   -0.5278346    0.4561466
  -0.0882050    0.0723410   -0.0000030    0.3728549   -0.9278895   -0.0005151
  -0.0383940    0.1072740    0.0085590    0.9140105    0.2561483    0.3145995
  -0.0373080    0.1047680    0.0000230    0.9901778    0.1398135    0.0002327
  -0.0393310    0.1088620    0.0000240    0.8465354    0.5323324    0.0001981
  -0.0407270    0.1088480    0.0091630    0.7622325    0.5263290    0.3768017
  -0.0417020    0.1173800    0.0000260    0.9750070    0.2221739    0.0003906
  -0.0426660    0.1160050    0.0088430    0.9145458    0.1089399    0.3895358
  -0.0421960    0.1211620    0.0000270    0.9909360    0.1343345    0.0002181
  -0.0426430    0.1206430    0.0097820    0.9416004    0.0763367    0.3279654
  -0.0433990    0.1252150    0.0000280    0.7244416    0.6893361    0.0001943
  -0.0440790    0.1247950    0.0099620    0.5607806    0.7498631    0.3510421
  -0.0471580    0.1190430    0.0165520    0.6286328   -0.0672299    0.7747909
  -0.0484740    0.1234330    0.0167800    0.2714791    0.7979024    0.5381921
  -0.0479670    0.1151000    0.0156360    0.5990870   -0.1039126    0.7939124
  -0.0462230    0.1083010    0.0150580    0.4869147    0.3561765    0.7975289
  -0.0435810    0.1062550    0.0154430    0.5324862    0.3459955    0.7724931
  -0.0546830    0.1219780    0.0198700    0.1106645    0.5460627    0.8304029
  -0.0524590    0.1171050    0.0189540    0.2448012   -0.2485598    0.9371715
  -0.0523420    0.1140510    0.0171430    0.2768662   -0.2198462    0.9354212
  -0.0527720    0.1080960    0.0170640    0.1511512    0.1669819    0.9743051
  -0.0514020    0.1041840    0.0187580    0.1475220    0.1999885    0.9686289
  -0.0625520    0.1194730    0.0199920   -0.2320542    0.4150813    0.8796922
  -0.0604630    0.1164790    0.0198680   -0.0401915   -0.2005202    0.9788648
  -0.0613800    0.1120030    0.0180080    0.0682877   -0.2542905    0.9647140
  -0.0608340    0.1049420    0.0178790   -0.1739840    0.0207586    0.9845297
  -0.0615930    0.1004250    0.0188910   -0.2403688   -0.0813970    0.9672628
  -0.0654480    0.0925850    0.0141820   -0.7339603   -0.5209324    0.4358115
  -0.0650710    0.1021550    0.0169060    0.0373012   -0.4288316    0.9026140
  -0.0658310    0.1117910    0.0183580    0.1363228    0.0468450    0.9895563
  -0.0677740    0.1155860    0.0177400   -0.2282429    0.1614809    0.9601193
  -0.0703540    0.1003060    0.0152300    0.0104253   -0.9723797    0.2331715
  -0.0685400    0.1035980    0.0186720   -0.0029337   -0.5870693    0.8095314
  -0.0715540    0.1100910    0.0223270    0.0511587   -0.0132570    0.9986025
  -0.0736450    0.1152460    0.0177820   -0.0772091    0.6560937    0.7507195
  -0.0704180    0.1188570    0.0152570   -0.3835848    0.8272129    0.4105869
  -0.0738240    0.1169860    0.0125710   -0.0475375    0.9177103    0.3943958
  -0.0758100    0.1090550    0.0212030    0.0996876    0.2681156    0.9582152
  -0.0757140    0.1021620    0.0192760   -0.4597040   -0.5810086    0.6716407
  -0.0742990    0.1003990    0.0220460    0.3024470   -0.0679156    0.9507435
  -0.0790780    0.1135400    0.0189260    0.2417564    0.5998566    0.7627096
  -0.0827020    0.1122910    0.0216890   -0.9838683   -0.0383230   -0.1747412
  -0.0792670    0.1084500    0.0234520    0.1062268    0.0278252    0.9939525
  -0.0801850    0.1060630    0.0213870   -0.7417587   -0.5844008    0.3290437
  -0.0815020    0.1199080    0.0142600   -0.2343558    0.9494361   -0.2089220
  -0.0789240    0.1166250    0.0163940    0.1914427    0.7083023    0.6794539
  -0.0868020    0.1183690    0.0171730   -0.2249876    0.5298822    0.8176830
  -0.0819960    0.1142870    0.0189610    0.0850764    0.4560534    0.8858766
  -0.0807650    0.1088730    0.0206100   -0.5539178   -0.3717537    0.7449659
  -0.0782210    0.1053910    0.0153170   -0.4324596   -0.5603117    0.7064202
  -0.0890640    0.1132780    0.0190280   -0.3468472   -0.3658403    0.8636306
  -0.0856160    0.1103640    0.0126550    0.0316493   -0.4256719    0.9043239
  -0.0826870    0.0963590    0.0112670   -0.8591571   -0.0181669    0.5113893
  -0.0791940    0.0988240    0.0137930   -0.0946611    0.0104073    0.9954552
  -0.0816290    0.0927080    0.0151930   -0.3392459    0.2149817    0.9158030
  -0.0841670    0.0932310    0.0091460   -0.9002981   -0.0120540    0.4351069
  -0.0833230    0.0890940    0.0086540   -0.7325986   -0.5403677    0.4138865
  -0.0801040    0.0867350    0.0149760   -0.6958589   -0.6303971    0.3440638
  -0.0814420    0.1017970    0.0073980   -0.9448385    0.2297566    0.2334355
  -0.0826550    0.1072860    0.0092720   -0.9524471    0.2038475   -0.2264743
  -0.0830240    0.0982740    0.0078880   -0.9544388    0.1637259    0.2494803
  -0.0862280    0.0931260    0.0036300   -0.8238486   -0.0275984    0.5661376
  -0.0854380    0.0891930    0.0037870   -0.6594529   -0.0583021    0.7494816
  -0.0841210    0.0875020    0.0044400    0.0188601   -0.8923494    0.4509511
  -0.0793510    0.0875000    0.0068080   -0.2028134   -0.9700752   -0.1334947
  -0.0726670    0.0838980    0.0118710    0.3198511   -0.8868569    0.3334368
  -0.0908870    0.0883400   -0.0000140   -0.9638842    0.2663201   -0.0008806
  -0.0950640    0.0798760   -0.0000180   -0.8808020    0.4734828   -0.0013868
  -0.0955120    0.0763980    0.0041660   -0.8301888   -0.1142563    0.5456482
  -0.0881670    0.0814630    0.0041200   -0.1683631    0.1716958    0.9706567
  -0.0848510    0.0801390    0.0041350   -0.0103959   -0.0415398    0.9990828
  -0.0931780    0.0736160    0.0048510   -0.1538999   -0.6917559    0.7055414
  -0.0918940    0.0721720   -0.0000180   -0.4643795   -0.8856358   -0.0009685
  -0.0959560    0.0749110   -0.0000190   -0.9283749   -0.3716439   -0.0009529
  -0.0838860    0.1085220    0.0113000   -0.8840725   -0.1016373   -0.4561642
  -0.0815110    0.1114370    0.0101170   -0.7416331    0.2010541   -0.6399669
  -0.0804400    0.1112190    0.0068790   -0.4677790    0.4272191   -0.7737355
  -0.0910270    0.1083530    0.0151970   -0.8763482   -0.2165674   -0.4302469
  -0.0901200    0.1107770    0.0147860   -0.0903464   -0.3245538    0.9415426
  -0.0909930    0.1141930    0.0143940   -0.8621808    0.4827902   -0.1534860
  -0.0856360    0.1137010    0.0124090   -0.3518129    0.1973408   -0.9150324
  -0.0761270    0.0911320    0.0000020   -0.0524228   -0.9986250   -0.0001314
  -0.0726170    0.0870850    0.0045590    0.9410584   -0.1857908   -0.2826497
  -0.0721440    0.0862170    0.0059730    0.1751900   -0.8778995   -0.4456467
  -0.0749490    0.0884970    0.0047500   -0.0269336   -0.9444749   -0.3274777
  -0.0781420    0.0909330    0.0000010    0.5069728   -0.8619620   -0.0001843
  -0.0764160    0.1009950    0.0000030    0.9391982    0.3433755   -0.0002628
  -0.0771110    0.1062020    0.0033230    0.6161949    0.2804781   -0.7359592
  -0.0714550    0.0973600    0.0093870    0.8082721   -0.2582307    0.5291626
  -0.0726280    0.0985630    0.0106940    0.9446687    0.0287386    0.3267646
  -0.0693780    0.1125790    0.0000070   -0.9608047   -0.2772262   -0.0001633
  -0.0699950    0.1123080    0.0058500   -0.9244288   -0.2694523   -0.2698647
  -0.0722130    0.1188630    0.0074580   -0.6345881    0.6716310   -0.3823738
  -0.0705240    0.1184060    0.0000080   -0.8405279    0.5417682   -0.0002346
  -0.0660140    0.1032910    0.0000040   -0.9769968   -0.2132540   -0.0000826
  -0.0664430    0.1031420    0.0056610   -0.9441932   -0.2533343   -0.2105253
  -0.0666460    0.0946890    0.0000020   -0.8952321   -0.4456001    0.0001236
  -0.0647920    0.0962070    0.0044150   -0.7981689   -0.5934377    0.1037214
  -0.0659890    0.0973240    0.0083910   -0.8010192   -0.4911459   -0.3422629
  -0.0718490    0.1122400    0.0090530   -0.4021436   -0.0652314   -0.9132499
  -0.0724670    0.1170960    0.0097200   -0.2179703   -0.0722909   -0.9732744
  -0.0682240    0.1032210    0.0086580   -0.6074607   -0.5906825   -0.5311174
  -0.0806820    0.1174870    0.0089690   -0.7146144    0.4068825   -0.5690104
  -0.0569610    0.1218100    0.0000080   -0.2227343    0.9748792    0.0000003
  -0.0384150    0.1030400   -0.0071340    0.7605910   -0.6169191   -0.2022674
  -0.0425130    0.1020870   -0.0145360    0.7040619   -0.4974966   -0.5067484
  -0.0488900    0.0999330   -0.0181370    0.4304568   -0.5031738   -0.7493484
  -0.0620560    0.0929320   -0.0042900   -0.2260933   -0.9739283    0.0185855
  -0.0624790    0.0930380   -0.0126280   -0.1935733   -0.9695483   -0.1500182
  -0.0587710    0.0958550   -0.0182340    0.0986130   -0.6607094   -0.7441361
  -0.0850880    0.1018500   -0.0044190   -0.8092660    0.4012917   -0.4290146
  -0.0875030    0.0971130   -0.0037310   -0.8329433    0.1249677   -0.5390627
  -0.0867710    0.0733350   -0.0032110    0.7164623   -0.5278210   -0.4561652
  -0.0383940    0.1072740   -0.0085590    0.9140922    0.2562369   -0.3142897
  -0.0407270    0.1088480   -0.0091630    0.7623378    0.5264152   -0.3764679
  -0.0426660    0.1160050   -0.0088430    0.9146635    0.1089712   -0.3892506
  -0.0426430    0.1206430   -0.0097820    0.9416550    0.0763599   -0.3278032
  -0.0440790    0.1247950   -0.0099620    0.5608202    0.7499027   -0.3508940
  -0.0471580    0.1190430   -0.0165520    0.6286328   -0.0672299   -0.7747909
  -0.0484740    0.1234330   -0.0167800    0.2714708    0.7979086   -0.5381871
  -0.0479670    0.1151000   -0.0156360    0.5990870   -0.1039126   -0.7939124
  -0.0462230    0.1083010   -0.0150580    0.4869147    0.3561765   -0.7975289
  -0.0435810    0.1062550   -0.0154430    0.5324862    0.3459955   -0.7724931
  -0.0524590    0.1171050   -0.0189540    0.2448012   -0.2485598   -0.9371715
  -0.0546830    0.1219780   -0.0198700    0.1106635    0.5460672   -0.8304000
  -0.0523420    0.1140510   -0.0171430    0.2768662   -0.2198462   -0.9354212
  -0.0527720    0.1080960   -0.0170640    0.1511512    0.1669819   -0.9743051
  -0.0514020    0.1041840   -0.0187580    0.1475220    0.1999885   -0.9686289
  -0.0604630    0.1164790   -0.0198680   -0.0401915   -0.2005202   -0.9788648
  -0.0625520    0.1194730   -0.0199920   -0.2320507    0.4150900   -0.8796890
  -0.0613800    0.1120030   -0.0180080    0.0682877   -0.2542905   -0.9647140
  -0.0608340    0.1049420   -0.0178790   -0.1739840    0.0207586   -0.9845297
  -0.0615930    0.1004250   -0.0188910   -0.2403688   -0.0813970   -0.9672628
  -0.0654480    0.0925850   -0.0141820   -0.7339603   -0.5209324   -0.4358115
  -0.0650710    0.1021550   -0.0169060    0.0373012   -0.4288316   -0.9026140
  -0.0658310    0.1117910   -0.0183580    0.1363228    0.0468450   -0.9895563
  -0.0677740    0.1155860   -0.0177400   -0.2282429    0.1614809   -0.9601193
  -0.0685400    0.1035980   -0.0186720   -0.0029337   -0.5870693   -0.8095314
  -0.0703540    0.1003060   -0.0152300    0.0104253   -0.9723797   -0.2331715
  -0.0715540    0.1100910   -0.0223270    0.0511587   -0.0132570   -0.9986025
  -0.0736450    0.1152460   -0.0177820   -0.0772091    0.6560937   -0.7507195
  -0.0738240    0.1169860   -0.0125710   -0.0475375    0.9177103   -0.3943958
  -0.0704180    0.1188570   -0.0152570   -0.3835746    0.8272220   -0.4105780
  -0.0757140    0.1021620   -0.0192760   -0.4597040   -0.5810086   -0.6716407
  -0.0758100    0.1090550   -0.0212030    0.0996876    0.2681156   -0.9582152
  -0.0742990    0.1003990   -0.0220460    0.3024470   -0.0679156   -0.9507435
  -0.0790780    0.1135400   -0.0189260    0.2417564    0.5998566   -0.7627096
  -0.0792670    0.1084500   -0.0234520    0.1062268    0.0278252   -0.9939525
  -0.0827020    0.1122910   -0.0216890   -0.9838683   -0.0383230    0.1747412
  -0.0801850    0.1060630   -0.0213870   -0.7417587   -0.5844008   -0.3290437
  -0.0789240    0.1166250   -0.0163940    0.1914427    0.7083023   -0.6794539
  -0.0815020    0.1199080   -0.0142600   -0.2343558    0.9494361    0.2089220
  -0.0819960    0.1142870   -0.0189610    0.0850764    0.4560534   -0.8858766
  -0.0868020    0.1183690   -0.0171730   -0.2249876    0.5298822   -0.8176830
  -0.0782210    0.1053910   -0.0153170   -0.4324596   -0.5603117   -0.7064202
  -0.0807650    0.1088730   -0.0206100   -0.5539178   -0.3717537   -0.7449659
  -0.0856160    0.1103640   -0.0126550    0.0316493   -0.4256719   -0.9043239
  -0.0890640    0.1132780   -0.0190280   -0.3468472   -0.3658403   -0.8636306
  -0.0791940    0.0988240   -0.0137930   -0.0946611    0.0104073   -0.9954552
  -0.0826870    0.0963590   -0.0112670   -0.8591571   -0.0181669   -0.5113893
  -0.0816290    0.0927080   -0.0151930   -0.3392459    0.2149817   -0.9158030
  -0.0833230    0.0890940   -0.0086540   -0.7325986   -0.5403677   -0.4138865
  -0.0841670    0.0932310   -0.0091460   -0.9002981   -0.0120540   -0.4351069
  -0.0801040    0.0867350   -0.0149760   -0.6958589   -0.6303971   -0.3440638
  -0.0814420    0.1017970   -0.0073980   -0.9448204    0.2299825   -0.2332864
  -0.0826550    0.1072860   -0.0092720   -0.9524288    0.2038360    0.2265617
  -0.0830240    0.0982740   -0.0078880   -0.9544388    0.1637259   -0.2494803
  -0.0862280    0.0931260   -0.0036300   -0.8236234   -0.0269904   -0.5664945
  -0.0854380    0.0891930   -0.0037870   -0.6583429   -0.0584318   -0.7504468
  -0.0793510    0.0875000   -0.0068080   -0.2028134   -0.9700752    0.1334947
  -0.0841210    0.0875020   -0.0044400    0.0188601   -0.8923494   -0.4509511
  -0.0726670    0.0838980   -0.0118710    0.3198511   -0.8868569   -0.3334368
  -0.0881670    0.0814630   -0.0041200   -0.1674449    0.1710670   -0.9709265
  -0.0955120    0.0763980   -0.0041660   -0.8291581   -0.1144709   -0.5471684
  -0.0848510    0.0801390   -0.0041350   -0.0103959   -0.0415398   -0.9990828
  -0.0931780    0.0736160   -0.0048510   -0.1531602   -0.6912818   -0.7061667
  -0.0815110    0.1114370   -0.0101170   -0.7416331    0.2010541    0.6399669
  -0.0838860    0.1085220   -0.0113000   -0.8840725   -0.1016373    0.4561642
  -0.0804400    0.1112190   -0.0068790   -0.4676971    0.4272747    0.7737543
  -0.0909930    0.1141930   -0.0143940   -0.8621808    0.4827902    0.1534860
  -0.0901200    0.1107770   -0.0147860   -0.0903464   -0.3245538   -0.9415426
  -0.0910270    0.1083530   -0.0151970   -0.8763482   -0.2165674    0.4302469
  -0.0856360    0.1137010   -0.0124090   -0.3518129    0.1973408    0.9150324
  -0.0721440    0.0862170   -0.0059730    0.1753179   -0.8778956    0.4456040
  -0.0726170    0.0870850   -0.0045590    0.9410809   -0.1858362    0.2825448
  -0.0749490    0.0884970   -0.0047500   -0.0270343   -0.9445265    0.3273207
  -0.0771110    0.1062020   -0.0033230    0.6163844    0.2805703    0.7357653
  -0.0726280    0.0985630   -0.0106940    0.9446687    0.0287386   -0.3267646
  -0.0714550    0.0973600   -0.0093870    0.8082721   -0.2582307   -0.5291626
  -0.0722130    0.1188630   -0.0074580   -0.6346497    0.6716604    0.3822199
  -0.0699950    0.1123080   -0.0058500   -0.9244506   -0.2694831    0.2697592
  -0.0664430    0.1031420   -0.0056610   -0.9441920   -0.2533291    0.2105369
  -0.0647920    0.0962070   -0.0044150   -0.7981669   -0.5934630   -0.1035921
  -0.0659890    0.0973240   -0.0083910   -0.8010192   -0.4911459    0.3422629
  -0.0724670    0.1170960   -0.0097200   -0.2179703   -0.0722909    0.9732744
  -0.0718490    0.1122400   -0.0090530   -0.4021436   -0.0652314    0.9132499
  -0.0682240    0.1032210   -0.0086580   -0.6074607   -0.5906825    0.5311174
  -0.0806820    0.1174870   -0.0089690   -0.7146144    0.4068825    0.5690104
  -0.0292070    0.0776720    0.0000220    0.9274057   -0.3740568    0.0003613
  -0.0299870    0.0776320    0.0071340    0.8084091   -0.5529456    0.2018065
  -0.0418010    0.0716550    0.0000030    0.4383192   -0.8988194    0.0000157
  -0.0339960    0.0763300    0.0145360    0.7426623   -0.4389801    0.5057164
  -0.0401810    0.0736360    0.0181370    0.4713700   -0.4661667    0.7486648
  -0.0522650    0.0666270    0.0042900   -0.1757229   -0.9842649   -0.0185470
  -0.0524920    0.0668290    0.0000030   -0.2078831   -0.9781537    0.0000537
  -0.0526950    0.0666970    0.0126280   -0.1500792   -0.9823951    0.1112483
  -0.0497070    0.0687220    0.0182340    0.1147916   -0.6865159    0.7179964
  -0.0813700    0.0657790    0.0000040   -0.9688718    0.2475630    0.0001988
  -0.0776870    0.0734550    0.0044190   -0.7987628    0.4961867    0.3402598
  -0.0764270    0.0785440    0.0000050   -0.7126942    0.7014749    0.0000251
  -0.0807000    0.0684770    0.0037310   -0.8286424    0.1344543    0.5433910
  -0.0737460    0.0540360    0.0000000    0.7338672   -0.6792930    0.0000010
  -0.0799510    0.0474130    0.0032110    0.4582803   -0.4720034    0.7531215
  -0.0814330    0.0462920   -0.0000030    0.3374442   -0.9413454   -0.0005181
  -0.0302950    0.0818560    0.0085590    0.8906923    0.3277383    0.3150473
  -0.0290190    0.0794500    0.0000230    0.9760950    0.2173444    0.0002319
  -0.0313530    0.0833580    0.0000240    0.8039482    0.5946993    0.0001991
  -0.0327420    0.0832250    0.0091630    0.7214936    0.5795496    0.3789054
  -0.0344000    0.0921010    0.0000260    0.9576994    0.2877703    0.0003895
  -0.0352540    0.0906480    0.0088430    0.9046449    0.1731034    0.3894264
  -0.0351880    0.0958300    0.0000270    0.9773866    0.2114601    0.0002184
  -0.0355930    0.0952740    0.0097820    0.9327405    0.1498841    0.3279175
  -0.0367020    0.0997680    0.0000280    0.6669370    0.7451141    0.0001953
  -0.0373470    0.0992900    0.0099620    0.4976808    0.7924917    0.3525205
  -0.0399660    0.0932900    0.0165520    0.6323457   -0.0176929    0.7744842
  -0.0416190    0.0975550    0.0167800    0.2034650    0.8168691    0.5397470
  -0.0404650    0.0892900    0.0156360    0.6060398   -0.0581410    0.7933066
  -0.0381760    0.0822080    0.0150580    0.4571416    0.3896579    0.7994925
  -0.0353840    0.0803940    0.0154430    0.5019456    0.3870380    0.7734676
  -0.0476920    0.0955710    0.0198700    0.0526839    0.5483394    0.8345947
  -0.0450970    0.0909030    0.0189540    0.2737817   -0.2269899    0.9346225
  -0.0447410    0.0878680    0.0171430    0.2989773   -0.1945890    0.9342096
  -0.0446840    0.0814410    0.0170640    0.1458568    0.1701825    0.9745582
  -0.0430140    0.0776590    0.0187580    0.1300145    0.2108693    0.9688294
  -0.0553140    0.0919450    0.0199920   -0.2766526    0.3871352    0.8795395
  -0.0530000    0.0891390    0.0198680   -0.0186366   -0.2035715    0.9788827
  -0.0535640    0.0845980    0.0180080    0.1087694   -0.2519135    0.9616178
  -0.0519840    0.0787070    0.0178790   -0.1578834    0.0039670    0.9874498
  -0.0528740    0.0730350    0.0188910   -0.2531901   -0.1226294    0.9596128
  -0.0556180    0.0659910    0.0141820   -0.6479379   -0.6761092    0.3507890
  -0.0577680    0.0754780    0.0169060    0.0819058   -0.4868393    0.8696430
  -0.0579820    0.0840040    0.0183580    0.1368121    0.0357346    0.9899523
  -0.0602130    0.0876210    0.0177400   -0.2413519    0.1429928    0.9598450
  -0.0628870    0.0731800    0.0152300    0.0527471   -0.9750729    0.2155238
  -0.0613360    0.0766180    0.0186720    0.0396378   -0.6295407    0.7759558
  -0.0635510    0.0818180    0.0223270    0.0554594   -0.0362708    0.9978019
  -0.0660360    0.0867770    0.0177820   -0.0596052    0.6619205    0.7472004
  -0.0631020    0.0906550    0.0152570   -0.4573153    0.7874918    0.4131821
  -0.0663500    0.0884970    0.0125710   -0.0223346    0.9256807    0.3776458
  -0.0672240    0.0815220    0.0212030    0.0973495    0.2887368    0.9524464
  -0.0683730    0.0745710    0.0192760   -0.5147108   -0.5633449    0.6463090
  -0.0668260    0.0729350    0.0220460    0.3344328   -0.1100201    0.9359756
  -0.0708290    0.0857130    0.0189260    0.2306473    0.6203266    0.7496644
  -0.0743420    0.0841570    0.0216890   -0.9897347   -0.1351853    0.0463709
  -0.0706200    0.0806230    0.0234520    0.0889307    0.0047728    0.9960264
  -0.0713490    0.0781640    0.0213870   -0.7030843   -0.5780933    0.4141022
  -0.0737390    0.0918550    0.0142600   -0.2510616    0.9398896   -0.2314640
  -0.0709160    0.0888020    0.0163940    0.2109191    0.7226684    0.6582276
  -0.0789000    0.0898650    0.0171730   -0.2692596    0.5092223    0.8174301
  -0.0737940    0.0862080    0.0189610    0.0458093    0.4612200    0.8861025
  -0.0721460    0.0809150    0.0206100   -0.5606712   -0.3922825    0.7292203
  -0.0693400    0.0776620    0.0153170   -0.4516915   -0.5579569    0.6961744
  -0.0807570    0.0845950    0.0190280   -0.3149219   -0.3924700    0.8641710
